984956.0423203903 -45398.45595406638 138.45829425042623 0.9989394498817762 -0.046042977216931874 0.00014042398477423563
412969.6598491594 600279.5762325522 11248.958773663193 0.566719833490999 0.8237659435194749 0.015436988871013045
4158.208924744428 -239652.6235831922 43190.01223094312 0.017073407374098574 -0.9840022338364894 0.17733612876522648
697685.7062162127 -624253.1218413946 23.63163157542755 0.7452370583012009 -0.6667996147999791 2.524226516498491e-05
140457.20721340438 -657547.5082264089 2348.1530036817207 0.20889381945008562 -0.9779320918335371 0.0034922711288641784
-114313.88493476028 -268573.42363673623 44224.2542782417 -0.38721529163788004 -0.9097384505743445 0.14980076591387026
639363.5937070469 -101831.15753136369 3367.85576168525 0.9875395549642154 -0.15728498929216625 0.00520187701147436
-402847.3076066861 -585042.9009120592 12240.891165025145 -0.5670470367588328 -0.8235051769611694 0.017230253079392018
-217812.87147652172 991352.8596598741 35.05998534611574 -0.2145941765343169 0.9767033010102997 3.4541892008736996e-05
675458.8194226038 283565.8212436338 7752.26839578578 0.9219923075080472 0.3870635756630158 0.010581743284900916
325399.7580773439 -587542.5690660086 1306.703049800384 0.48448930127662376 -0.8747950227098905 0.0019455566018685986
909471.7240217306 -593236.1469959924 2.0674720441338876 0.8375674385992674 -0.5463339507980786 1.9040144059931613e-06
231697.89991836678 -482062.8502207226 5655.110722425333 0.4331744150641415 -0.9012481047177647 0.010572600270320205
-485382.4357575949 283999.4970878772 4034.9672020510798 -0.8630905450454779 0.5049982501975652 0.007174841496320875
279951.7053816628 -399780.88741533685 7523.473163394403 0.573538699635697 -0.819033447196911 0.015413383565549546
683017.0701648408 630961.4912181108 4560.466978280058 0.7345350266943059 0.67855304946203 0.004904449507859283
550230.7254341996 -591151.7708529949 175.35705928537706 0.6813177138474981 -0.7319877906429775 0.00021713413158644265
-113764.88756490909 430458.21497133095 13938.064923802194 -0.2553897646191702 0.96633174394158 0.0312894355747997
-852023.321240829 873695.7695376632 0.09442449381054716 -0.6981715243490718 0.7159305291633312 7.737404732489158e-08
900560.1431681411 993337.4814262537 273.71878142719197 0.6716619267685745 0.7408577558840864 0.00020414681409213617
-870197.2596694442 21575.428628072463 584.7282379882442 -0.9996925517706112 0.024786098854109984 0.0006717424788821439
-163962.4417710475 -973528.2114176315 464.17348381960437 -0.1660817919128341 -0.986111868568714 0.000470173309926856
747356.0434256888 -250900.39286805154 481.2067253750871 0.9480029233617385 -0.3182610323471238 0.0006103990011318767
-32384.011838369614 782505.7304511976 1334.97763723619 -0.04134956049621364 0.9991432871695316 0.0017045676381141446
-88001.19763660748 783413.8272486522 979.2559421688596 -0.11162826314420718 0.9937492580503741 0.0012421721855349068
893390.2522426287 -116997.92370072764 252.91700593584105 0.9915335158903542 -0.12985071456471228 0.00028070116893990905
219403.58715823494 -228142.02275316123 24918.445203675725 0.6910301370489175 -0.7185525783406365 0.07848274874249556
-534987.9721100928 627882.1283570749 138.92150265613722 -0.6485545490520889 0.7611681604884557 0.00016841158531737748
-595856.3816814775 353871.9046603669 975.1328893318203 -0.8598018326954158 0.510625918460074 0.0014070857863485357
810893.8070058646 736449.6517365309 1656.1492140450728 0.7402692674924851 0.6723088023684397 0.001511907422337157
330600.1257849367 372299.393686624 29018.131815229226 0.6628656942924032 0.7464742957819198 0.05818244638322764
-275962.77024154965 992414.7602665379 20.599034980627437 -0.26790702669975014 0.9634447698986126 1.999772001749946e-05
-434463.12597871537 -47644.13158904856 22092.898829807185 -0.99277329944789 -0.10886958843845916 0.050483547979421915
149933.99300096545 321471.22519458114 38501.83157613832 0.4202184220381531 0.9009840148862628 0.10790867758987385
-675905.8685064884 58016.22711537651 3075.321245350245 -0.9963261898693865 0.08551943281715296 0.004533209788183357
-45821.18293606294 -589728.2192336338 8858.353695116883 -0.07745664673059344 -0.996883262659965 0.014974261440057661
-250896.3378628578 -703561.9578235755 6236.556737731395 -0.3358784705226954 -0.941868328269126 0.008348966574164297
-10196.202102036013 186480.15713160584 49177.20238784229 -0.05279590872576479 0.9655937825242377 0.2546394297283039
76796.96682723328 763318.7296103883 2561.612553697774 0.10010338484912812 0.9949714384506125 0.003339013217462566
-944849.2424338817 15125.097238057297 267.0893728617123 -0.9998718574866986 0.016005896381021407 0.00028264313010430934
740728.9795958046 295220.9254362154 5034.699353701345 0.9289204566091029 0.3702255000289237 0.006313827798504426
-488739.2755210236 -85773.3304237585 18023.877689367742 -0.984297756942494 -0.17274342572855325 0.03629923615641033
361505.5354977905 958454.4105602168 909.0738328184096 0.352907246291322 0.9356578904409213 0.0008874518133551606
-555104.1179135494 84250.9012204963 7006.152504002362 -0.9886004625901357 0.1500447884142519 0.012477453117205042
493531.6083360766 814364.4524027231 2977.052155395948 0.5182818212815111 0.8552041742598777 0.003126348924946601
908291.895937449 78238.8629098432 645.2263379405233 0.9963103519291766 0.08582063694380099 0.000707752301548408
-357262.2307597402 -536130.5539076456 16062.281977543413 -0.5543579930724213 -0.8319050610444219 0.024923581712790747
-765209.188659502 100580.00002678898 1089.445320623386 -0.9914709652761753 0.13032011532523816 0.0014115792382816258
-973739.4065997296 -382011.0023216253 809.8626752212074 -0.930923386035111 -0.3652137043788127 0.0007742524321502479
-293450.05433745834 625525.6931821858 1168.3505467342893 -0.42471196045351656 0.9053269527084186 0.001690960502020658
-153088.60853246402 556755.3233801777 4989.9701557508915 -0.26511582216472246 0.9641778491390537 0.00864153154895772
672793.1564409507 -160022.30390087617 1831.5873347899071 0.9728570382970867 -0.23139180763671494 0.002648470206403703
-397318.9523815697 -7704.073858497837 24238.297040955582 -0.9979575031784145 -0.01935054511254478 0.060880031650387544
952147.7869427365 628806.8511382934 906.7245006367959 0.8344522517690095 0.5510796748737138 0.0007946437639895593
950931.1299280509 809970.685396548 538.9300250954165 0.7612754687137744 0.64842846528363 0.00043144471197349634
-303321.95166943653 220332.9774121374 17694.278095418624 -0.8081723071499723 0.5870561286986875 0.04714471034167684
379637.8374532433 320493.7508947656 28957.598797594175 0.7628239267913098 0.6439829686358159 0.058185847262784175
-627310.4107398199 280693.75071596226 1259.7162773954608 -0.912786947516324 0.4084319142747291 0.0018329881919612152
335905.9674139328 -419353.6001162996 4674.266878567722 0.6251514158717973 -0.7804550150804087 0.008699233835576253
355034.7662928742 176498.24471615034 34791.19308574501 0.8920253506752531 0.4434520885952194 0.08741292166052592
-266452.40597433184 -809203.7183644262 2883.2223971959666 -0.31275655486637266 -0.9498272917269012 0.0033842693240587318
-784843.2233398134 -130895.08750332422 2554.7519837102395 -0.986370922856947 -0.1645056036907304 0.00321074705992821
642657.3155770118 579606.3134713237 6424.81883877785 0.7425753410689521 0.6697213981377447 0.007423726338862435
122055.87282991089 -775215.5293338834 868.3885262084083 0.1555315717583758 -0.9878303020848439 0.0011065574252731502
572541.5873620163 -303648.38843009155 1746.514612061093 0.8834411068502559 -0.4685344685684105 0.0026949008352712012
-487704.78429636377 -951703.9391374208 1045.8271241931309 -0.45605836827875007 -0.88994932906732 0.0009779650048939105
-896534.1920020446 -989194.5571697732 286.7030870049441 -0.6715509224805549 -0.7409583742664331 0.00021475558241258234
388449.6657088006 -702624.6853141055 251.18112172570042 0.48383595631495135 -0.8751586538995445 0.0003128602466851424
510420.62756278843 912086.7680126949 1432.9595348944422 0.48834945107091826 0.8726470844543902 0.001370996712287958
-984921.1567717674 110233.66305671325 88.93630176772828 -0.9937950402766365 0.11122683969583273 8.973759471977275e-05
427815.09221485705 -919572.0070707421 12.221215482882117 0.4218176313342714 -0.9066806966900447 1.20498885168503e-05
-427602.4432097227 728763.9582469437 131.46739154221612 -0.5060682431335201 0.8624934255302567 0.00015559188896983162
-538606.5053371737 390529.6777580416 1225.7439858687221 -0.8095805240330044 0.5870059459676832 0.001842418256327388
498897.2099094968 -21477.68301319583 12903.884829845609 0.9987412215169458 -0.04299612613957943 0.025832258511952574
-860178.3596339187 -632741.799078862 1724.256860556399 -0.8055347653042032 -0.5925463142737867 0.0016147219119573997
714885.0589213397 -27017.461355519903 2543.683187771202 0.9992803020069431 -0.03776553532051855 0.003555610055581922
276078.0522398387 169977.564336599 43258.075006882675 0.8440633742718813 0.519678530547682 0.132254471004076
394767.0641773968 -930590.09277446 14.878817621335484 0.3905257581207829 -0.9205920008492035 1.471896229139776e-05
-449599.72438875795 969316.3939996625 4.8145025733690625 -0.42077249008826517 0.9071661984248633 4.505808447918869e-06
-386527.9010229 -437615.83113138244 21904.131936334095 -0.661537810360034 -0.7489741825607297 0.03748865590466459
50733.44526994943 411095.643375052 24847.580135681324 0.12226136547822217 0.9906899567680832 0.05987961314382416
160324.9801574708 -473009.15534944215 8730.834461683045 0.32095952242526676 -0.946931616362102 0.017478526780065673
623548.5375249934 -225238.45105843473 1897.8051879743216 0.9405172063042359 -0.3397339998304162 0.002862517231758803
-247040.29794183312 594077.3027126641 2130.131519287249 -0.3839617281836464 0.9233430728696002 0.0033107512669716924
-749817.9124293022 -427794.74154600065 4818.916688527301 -0.8685650549277336 -0.49554372738959 0.005582078753896837
-844263.3319062054 -391704.3103825779 2477.4064537895883 -0.9071186170253706 -0.4208666406426325 0.002661849012318595
4709.855194713487 359538.8022100317 28539.487612305515 0.013057524100869354 0.9967793872568896 0.07912240014139356
777872.1770346834 266145.1765157956 3692.760343160061 0.9461428883131586 0.323718180767433 0.00449158491597517
447739.02378747374 -737410.123602033 98.10829168744627 0.5189999265620323 -0.8547742762248399 0.00011372293562930571
166178.29661334906 645034.4678216937 8163.333431363181 0.24946203950993415 0.9683070363358071 0.012254559400892916
-631631.912888034 -257993.54846691104 10003.722274394877 -0.9256534601392333 -0.3780882757175194 0.01466040576579766
253326.20672690702 9556.72518562902 42319.741058990876 0.9856494345451793 0.03718360171663367 0.16465895646501338
977612.5535212564 -383927.1882745164 8.716045295593286 0.9307951944048471 -0.36554111397211586 8.298638398342545e-06
-733320.1747931472 537433.7910136445 40.834784637064374 -0.8065803260291271 0.5911245009686675 4.4914261243641924e-05
-507406.7231683506 -787017.009503855 3506.7064171359157 -0.5418620020750297 -0.8404591286729359 0.0037448281095167463
146102.90948332328 -510093.0938194909 7259.981640236126 0.275326093545371 -0.9612535394568814 0.013681194928191934
365416.8512477655 -870360.0608889904 43.77499800664595 0.387111474088149 -0.9220329194116454 4.637389860017333e-05
-828620.8738162107 -691804.5725791566 1766.4592406147453 -0.7676334827022806 -0.6408870089798013 0.0016364459329629248
-309047.73272808216 -201566.40851622526 39383.458418723516 -0.8328627817149009 -0.5432078670022581 0.10613576240351004
227675.72917195514 -96538.87678687785 37251.24937475777 0.9103850805189926 -0.38602073851471735 0.14895299461568295
-967248.2248525046 -801195.4579386099 500.2441745709366 -0.7701148946750637 -0.6379050794315182 0.000398290200915341
-927367.4588929194 -324767.13623520144 1145.1349394266877 -0.9437978753890695 -0.33052112216757007 0.0011654236004300998
461242.4762168432 -879610.0174548299 14.616683250215237 0.4643975354556216 -0.8856268564390787 1.4716666456244183e-05
356468.05819183425 -285127.8361143517 9567.357349526925 0.7807471471685155 -0.6244956301380935 0.02095471609567061
-43724.41033852947 607006.4008704299 5684.048649793622 -0.071843576289023 0.9973721848098153 0.009339460032514648
-710597.9269904991 246067.94131059037 726.0521350849436 -0.9449479178983642 0.32721934580888257 0.0009654988106141103
49598.47604266828 791544.0423171088 1790.1106077747202 0.06253760141284107 0.9980400562418834 0.00225711014946522
796049.3822060178 720991.5660255601 1902.5149508302095 0.7411841321875056 0.6712994446378023 0.0017713899719350647
-838807.7318026518 -808669.8745566198 1047.1999908707228 -0.7199213811648199 -0.6940550389849695 0.0008987776759797556
194146.64205792165 -765591.8576312434 598.9930901417965 0.2458095686796379 -0.9693178430190629 0.0007583867100102172
526275.7958074987 -350462.98892552103 1850.2165776024488 0.83232950768576 -0.5542734234753923 0.002926203077200183
628753.3173810139 -605014.528648451 65.52508065192077 0.7205787703881438 -0.6933730814119561 7.509460505499478e-05
651879.9554529964 291544.0834893574 9017.034506377731 0.9127905933931254 0.40823267342769803 0.012626042891598445
488730.550650194 537788.486186386 12510.630999807623 0.6724465061257198 0.7399455345886747 0.017213432010863013
-87073.45286675305 647263.8413592264 3395.630216224756 -0.13332265429775655 0.991059048652058 0.005199224545896099
949825.8627620046 764074.756111747 644.493476367288 0.7791795312799435 0.626800589108789 0.000528703359759613
979902.9826053219 -561405.8178704013 1.0895440971580683 0.8676852157174966 -0.49711403764563983 9.647703106921732e-07
-819168.0318361489 730422.8747952273 1.247660705282276 -0.7463798173364286 0.6655202237885389 1.1367982307843409e-06
-790403.2027273232 388692.22407463397 93.16355658982212 -0.8973637468033608 0.44129162096686875 0.00010577082420528978
-12283.825467103537 683173.7880809545 3554.3081196943585 -0.017977378997808414 0.999824862587837 0.005201730056638446
11636.70427279042 127660.51022323997 56050.12878018252 0.08317400054958811 0.9124607018067935 0.40062145884966127
-95561.7367316388 -119456.77060762307 57053.265540507615 -0.5852993834278002 -0.7316524016224722 0.3494415472709356
437839.49351745093 125309.1593047173 24577.609095499403 0.960003829057456 0.2747519913794726 0.05388869480732755
-197428.99646751414 -661974.1367830298 7688.529118295355 -0.2857849130587199 -0.9582291583941075 0.01112939671950884
-296984.6650044287 845001.0056436902 111.41791306844627 -0.3315778375660184 0.9434278574224281 0.0001243960211912057
-921755.3599858781 867893.93001784 0.03426914609678894 -0.7280582706106996 0.6855152475294453 2.7067849372653293e-08
-727574.2502713935 -950765.1705221478 720.7977500925365 -0.6077232593409984 -0.794148649546205 0.0006020630304721459
-309629.6432741717 615861.6317390949 1134.6209014202784 -0.44918351091012426 0.8934380024281113 0.001646008420455666
278912.1613184019 -850531.1567172258 121.72032360818187 0.3116005863539868 -0.9502131635015818 0.00013598591050394652
155086.97179566574 397062.89335291646 29845.02732464185 0.36293009656765257 0.9291952287125184 0.0698424795041308
-144884.9462796877 790729.1318093635 642.3056880587294 -0.18022905010131138 0.9836243445080113 0.0007989935946142076
911492.7239515242 -619257.5273102331 1.4418693082422007 0.8271616876238992 -0.5619640046528521 1.308467987729271e-06
-412096.7028575773 959489.7749985607 8.338610394205777 -0.39463662861994775 0.9188372713858075 7.985312841684907e-06
806071.8054802947 31774.506000964673 1447.9313699526915 0.9992223677988796 0.03938829879182493 0.0017948840314943536
183050.5049853668 -292881.97637622635 21755.178975504623 0.5289491216384501 -0.8463219708698569 0.0628645237067243
349354.04926730593 -327405.3742547726 7821.9853600692195 0.729558693022318 -0.6837231096383587 0.016334710956120737
-194224.18738788768 -369081.5576974171 33218.290399220874 -0.4642213668967301 -0.8821534923891474 0.0793960854334897
569505.8444826747 -297903.61392329854 1866.8015895383542 0.8860892037451107 -0.463505648996227 0.002904540401208243
276205.8488937493 447960.1224386156 24476.469193673463 0.524272100910216 0.8502824811839294 0.046459298303880965
-875282.479531986 -649925.2256258917 1496.39471254632 -0.8028680467915942 -0.596155194078436 0.0013725940232846043
-652071.8706336904 560537.6785098688 81.72236284044985 -0.7583255312739798 0.6518760461818296 9.50388400556581e-05
411842.445650725 988887.281940507 726.5208721360508 0.3844610413074468 0.9231409685075737 0.0006782180272644969
833566.6456046443 439195.0768664681 2692.3109222441085 0.8847063951378772 0.4661399244627729 0.0028574856049826186
-992963.5618169159 742246.552148659 0.0741980503273188 -0.8009576927042049 0.59872094877159 5.985063448307829e-08
724865.1774573388 -493808.13782885316 71.49722124711097 0.8264491605226757 -0.5630113483992548 8.151697766286543e-05
-502216.0137144863 953922.8843449516 3.286049484491348 -0.46585635892642746 0.8848603578184078 3.0481446355621198e-06
210310.58225077158 -240786.33067323323 24532.294356390485 0.6559074061732701 -0.750953831726555 0.07651024207423211
996312.1548188295 148975.72455002056 341.165787748655 0.98900479335027 0.14788307556038185 0.0003386635381075889
-994089.6824658958 -638445.0914587339 640.9762739154849 -0.841414115527023 -0.540390591933087 0.0005425330270530267
-489641.4415340184 555053.933401208 451.5758842101236 -0.6615364074051604 0.7499128012285036 0.0006101074434697721
457070.4759979117 -114600.90614609676 11840.58151260604 0.9696697767207941 -0.24312450904222055 0.02511965798382812
377757.0678510222 490112.09046940587 18743.652092295328 0.6101898108583869 0.7916765276801587 0.03027656263337905
584392.9695808331 878941.5152139602 1679.314404067117 0.5536705736548604 0.832734270035179 0.0015910303816858338
-225504.35496303643 169347.01803375734 30279.567447350983 -0.7950578214775291 0.5970646165733898 0.10675628385943532
-243393.4346323833 -415520.4435098982 28003.25997173845 -0.5045772498338705 -0.8614125641993764 0.05805336501481268
-272343.07850501774 -44004.548708446826 41745.97229024102 -0.9760843994715097 -0.1577134022861086 0.1496186079593113
130973.27850737193 367378.0544798239 32872.934307201576 0.3346197142705597 0.9386032099089089 0.08398607724011072
74324.5615443007 -542781.9503275192 7970.754598756109 0.13565227153657164 -0.9906496988494458 0.014547693854034616
753915.7527084955 874755.6212288954 1079.9039832729145 0.6528479663720059 0.7574883882451204 0.0009351351484883312
-945302.1770639088 -399952.02023572975 1070.960359608403 -0.920960986840062 -0.3896533999202583 0.0010433835164910036
-823316.4783684923 -363982.27366776846 2875.161821596902 -0.9146033712876062 -0.40433955026037155 0.0031939512497562265
-96940.18714871162 -880192.463233627 931.2604442265746 -0.10947321421746273 -0.9939891897707326 0.0010516595552541208
-701247.3882772604 829727.4102540602 1.5936841947281892 -0.6454970832742166 0.7637627350704713 1.4669837158103302e-06
-390717.8816843034 625070.495544919 547.0516082533724 -0.5300464205079929 0.8479683020917952 0.0007421281706838495
682642.1240592151 906762.4560137421 1111.880019222354 0.6014480525071478 0.7989113095059396 0.0009796320042577476
273658.2693439366 393415.51733428385 29512.219610598426 0.5699537122739943 0.819374598503567 0.061465707449043464
-558645.964352171 347427.90977248334 1432.9846333351154 -0.8491732232747348 0.5281099243941166 0.002178217077793547
-878264.3995206908 -326378.6979358672 1774.2852987905812 -0.9373656779186483 -0.3483417859312336 0.0018936827484178844
879312.2166438196 -393305.95943376905 29.722229962993456 0.9128455541400372 -0.4083050248707373 3.0855713098589396e-05
-390960.8578988695 845539.8591621316 46.68434707223359 -0.4196878986215414 0.9076684776057607 5.01146217720152e-05
905048.0226606961 -293183.2614996843 55.19442061858838 0.95132943536187 -0.3081757648617187 5.8016895996128374e-05
-473105.18211133004 205411.97834318815 6956.0738615570735 -0.9171892365359834 0.39822361435812903 0.013485449569368924
-887178.4667130873 -86643.92800911018 831.4847182553364 -0.9952644460194549 -0.09719985802904349 0.0009327854637342859
-44253.74514624207 127066.32787444274 53177.63009341006 -0.30587470815358925 0.8782618471341718 0.3675551533857597
-991013.4439499617 -768789.3957997321 474.73409658850954 -0.7901238442208877 -0.6129471164229823 0.00037850014212136447
-410525.08117485663 -9098.632589041905 22826.25795957136 -0.9982133672796891 -0.022123804587909555 0.055503249046343704
-894002.262486681 519765.37186231744 6.246216618206798 -0.8645086091546508 0.5026180106810817 6.040150307969801e-06
656273.1941979323 122515.12548039478 6869.221103451919 0.9829653004014302 0.1835030261577833 0.01028871214788942
-443528.8375914477 -435355.49078775523 19268.300120191045 -0.7133090563175085 -0.7001642012339977 0.030988408894026404
-321385.03522741975 -811432.5725026405 3047.7922172413955 -0.3682373556081134 -0.9297252578709 0.0034921070476283565
-834999.6278992597 949006.5436325233 0.03695662181619857 -0.6605716586167604 0.7507630011077406 2.9236536346030492e-08
-212232.48924306335 459337.05190656625 7371.655058652493 -0.4193896218797027 0.90768945509472 0.014567023355859323
702347.3275432198 -44905.82368310722 2609.4008179419443 0.9979554303119821 -0.06380605270322123 0.003707660888003374
-685805.1870264189 -997742.8680443388 567.2030897945862 -0.5664485348498357 -0.8240969833009107 0.0004684877939893246
922734.6107208749 244275.53500183724 1007.3124580803842 0.9666989215582729 0.2559142070815617 0.0010553065373127995
659512.8601829988 -396758.2376135974 367.39901006287545 0.8568900706736078 -0.5154989611191446 0.0004773531840013488
352743.04899039 -255002.5265376471 11492.71451757124 0.8101310890830713 -0.585654274787728 0.026394865484349966
882980.2823461377 446511.82377363124 1844.2935679226407 0.8923863512325415 0.4512683523813246 0.0018639401587848266
455343.5806581545 569207.0773099213 12003.286265890501 0.6245918984627123 0.7807777338631704 0.016464831558111674
-701478.0821770255 674145.1160794602 12.413392896310436 -0.7210143367576437 0.6929201440477398 1.2759107480975616e-05
-286932.5729146179 -58808.938165507905 40564.46264274349 -0.9703736898867195 -0.19888521455166078 0.13718445031552443
53346.18325440352 492674.4735143104 16475.70532400015 0.1075900992949744 0.9936398874633336 0.03322867098683375
749810.1173813721 534707.6701279674 4205.3264764036785 0.8141720600274627 0.5806057229808561 0.004566301842310503
185478.28601881073 -675006.5647981031 1536.5434474172603 0.2649585932937347 -0.9642572923862537 0.0021949760217273833
936974.2628969976 501464.32675770455 1178.3885295657885 0.8816697822084273 0.471865622424641 0.001108834681335735
-391195.7612350037 -38140.311814675224 26564.071002678815 -0.9930155234438006 -0.09681577730134816 0.06743052324556494
168167.871262195 444662.4397238187 24771.772773715264 0.35326051546642856 0.9340766549900943 0.05203662954986301
-786586.1015345409 -498558.6958513917 3557.507755763048 -0.8446247774573441 -0.5353451156985821 0.0038200003669683373
-187524.27328779994 -169020.5421894442 50594.59054510432 -0.7283217784260765 -0.6564555069040467 0.1965033193755983
466529.9451435083 -416257.10638236144 1840.422039860957 0.7461628198123038 -0.665756999091733 0.00294355059777554
347121.7306955736 593075.7306801358 12426.771581213605 0.505048344576255 0.8629016552439509 0.018080459563689345
342948.3620751315 353839.2348997764 29607.15298561457 0.6947167500489659 0.7167785897036378 0.05997574963155131
-332170.9335125855 -626685.6872306388 10473.356026510493 -0.46827287830288283 -0.8834605347538411 0.014764653006097814
-242333.32071504885 406656.6886626716 8869.790594202863 -0.5118241005824892 0.8588859893739738 0.018733588017683545
-209335.49408653413 67200.33501227554 42177.95234127774 -0.9350907162682739 0.3001803859125813 0.1884067097060516
-394657.19564813183 277654.5239460046 7878.344391493902 -0.8177629774560449 0.5753235788171553 0.016324593693095336
-916670.9700936155 -362935.17627564754 1330.1005391854976 -0.9297758256934286 -0.3681237480013338 0.001349115841369093
-17305.23813787809 90949.09832832606 57686.20744203814 -0.15864413516519293 0.8337672636107718 0.5288328549822657
430629.2883616637 876566.9778258236 1939.840871829157 0.4409318667696225 0.8975383800572794 0.0019862505407047177
-625660.0301146996 602305.0029269987 69.87115449527174 -0.7204251609730017 0.6935326819726351 8.045413691425607e-05
-91643.35334715448 396264.44796946825 18302.834963799578 -0.2250932123694771 0.973299582386295 0.0449551851498017
-787196.1794258915 568871.6203320748 14.710304480045243 -0.8105125248455036 0.5857213047509583 1.514601612277012e-05
783484.518718319 -102859.28780036386 897.2653675354323 0.9914913885162595 -0.13016734299971788 0.0011354798517022144
-875837.9612121884 -226498.21651170228 1493.1366157686698 -0.9681487014066726 -0.2503704610876146 0.0016505088150991585
930412.1665149124 -650291.7764966303 0.7246057089730971 0.8196442273059651 -0.5728728834947592 6.383395529504032e-07
976370.3706468635 85070.9092070078 319.27107302973354 0.9962256265007011 0.08680089274481699 0.00032576370024611946
343308.3050461971 369054.4634657613 28579.63723820116 0.6800136586668933 0.7310107919321355 0.05660959375598724
-785198.3881493561 440114.75667850394 60.23960958691112 -0.8723147710667499 0.4889447164046911 6.692308853283255e-05
-742341.6553987468 573297.4611774512 24.594600769769816 -0.7914552911758954 0.6112270620498541 2.6221789888831194e-05
635351.6290865582 630817.7254831445 5552.699343956922 0.7096205949633138 0.7045567040007827 0.006201778089049801
219550.66615490054 -217414.13352440493 25991.56190740946 0.7080549717627601 -0.701164614389449 0.08382326938346234
583266.7322745317 -989754.7486430921 0.7094834411605667 0.5077041945673314 -0.8615314566621209 6.175694568565617e-07
-593399.887927428 -372316.0719463136 12172.713019310824 -0.8469445685984613 -0.5313972606873981 0.017373803714088216
-985306.2586893018 -189837.07711296732 451.0138294826625 -0.9819406595660455 -0.18918863355071608 0.00044947326101910426
-346765.68557011185 -797922.8570347361 3450.1144171520164 -0.3985709190476525 -0.917128942370977 0.00396554599052392
-465831.8915868443 -341357.87174575106 21546.37323087369 -0.8060523897417143 -0.5906687224451486 0.03728277506688235
-834231.6886508684 490675.41249518655 19.270171079286776 -0.8619563894874853 0.5069824279255317 1.9910592362141263e-05
-189705.67187994026 852899.3018063742 239.83243418419275 -0.21711857472613327 0.9761451988125579 0.0002744887686654205
637906.6964460551 -15983.51528955983 5028.0582510258755 0.999655208000712 -0.025047556939573026 0.007879404064531593
-154840.67713467844 429116.0256680366 11831.125807981745 -0.33930176501871184 0.9403202543498231 0.025925499313820707
-715716.380062941 -46012.942062183734 3425.400213525178 -0.9979284417114404 -0.06415617254230754 0.004776059892635971
643327.642602727 395596.3864492823 9237.125873327652 0.8517704162259382 0.5237724550124188 0.01223002095483457
384996.21325576544 111260.56688426438 30271.044544991604 0.9579589272595829 0.2768418224101763 0.07532130540744467
-915937.8139709459 718368.5184278395 0.35434860493800224 -0.7868592913321871 0.6171324457878679 3.044120331240195e-07
-916026.6842170082 975915.3923979144 0.00630206959132089 -0.6843807904173389 0.7291247723865499 4.708394899936678e-09
360229.71783669444 -108438.9611758392 20775.80173290473 0.9560982443287679 -0.2878116248145205 0.05514177919756677
508408.36902296555 -931080.9050720048 4.239144152693414 0.47924879088604255 -0.8776790964915924 3.996009572923033e-06
407920.05881180515 -160587.51003795973 13089.28319534084 0.930078113546507 -0.36614754574778935 0.029844219618567796
-651090.4460607794 260248.19727278952 1167.3909698659297 -0.9285678214027456 0.3711590348586183 0.0016649018522266151
169646.75530330892 18323.559283511735 52456.164704677016 0.9503248392413471 0.10264466007203936 0.2938482153759029
-562291.7953590348 387382.9604006891 1017.3101489340521 -0.8234886305115422 0.5673308168051411 0.0014898729596726189
201633.84092125317 832947.5338771652 2057.5058203260087 0.235276606623267 0.9719254881544125 0.0024008022924236223
-220301.42315035846 85933.55059985931 39147.55926406017 -0.9191215590731732 0.35852414330582405 0.1633278859035545
154398.5696926397 -732106.3573677466 1087.9539303134477 0.2063569676900115 -0.9784756959454527 0.001454073535090627
-597288.7111990128 585127.7005947647 114.5043920973131 -0.7143415026225043 0.6997972555514218 0.00013694422475099715
296723.2332204261 587234.498856871 13015.07365810576 0.4508979970387468 0.8923563431580593 0.019777590652607056
-437251.9702838874 426302.1320773945 2147.991757206311 -0.7160108843799627 0.6980802542836405 0.003517389473899039
-274010.95985730627 -574267.3567820389 13912.892257904261 -0.4305355528265243 -0.9023088494384889 0.021860420337901906
-426754.0409395102 -375831.87105938344 23087.263893075196 -0.7498442686896722 -0.660369551239329 0.04056634700361817
355479.1776974829 -223635.55110263522 13232.633806422833 0.8460112032518452 -0.5322342166528805 0.031492580019102746
791912.7133092284 42355.43833453139 1730.6769072455318 0.9985703618552679 0.0534085192388319 0.00218231458654193
-920087.0906875388 -74456.56687117697 560.3286497063026 -0.9967415130868036 -0.0806597026233343 0.0006070108273302716
83602.26369185274 -78007.75038693963 54510.35580806629 0.6599873897101477 -0.6158222191781909 0.4303250396967783
-128103.5757354437 -895001.218899396 909.3444879310595 -0.1416882051450973 -0.9899108247408871 0.0010057751129416055
-975465.8026525913 -244472.08764714492 597.6842920538271 -0.9700004588117972 -0.2431023584215431 0.0005943355840258952
58451.508763054895 174129.31991341664 53231.16280199967 0.3056513960588295 0.9105474067754193 0.2783534517512717
606522.9484605098 751856.48782598 3514.6908768468275 0.6278656291680509 0.7783132492697028 0.003638367854545114
413844.08991187037 842900.8386851783 2516.182178398941 0.44072001160944924 0.8976406247339548 0.0026795884389979366
-29251.591277520725 -727609.5095722218 2904.1273794852486 -0.04016955314005196 -0.9991849189561683 0.0039880736056011265
-563655.9926303279 -619550.9695195169 7424.026743636558 -0.6729259811162409 -0.7396567223030832 0.008863243796950698
-879091.5433813772 744075.934335658 0.43030629056592373 -0.7632881266230367 0.6460582293850574 3.736217062637368e-07
-7716.189956006085 -299426.22087414784 36310.37266973895 -0.025574137239187115 -0.9924026377404248 0.12034520393567158
-271096.43882238085 200838.81294256702 22366.252334210993 -0.8017596062261493 0.5939747798946967 0.06614752204834666
-732495.363878974 247348.4679564163 576.2810107718832 -0.9474405542005295 0.3199309935837341 0.0007453862879481179
-682174.2427630597 382076.30575619073 329.9455374734799 -0.872473914969376 0.4886605054889524 0.00042198731168767943
-509366.9505682816 583519.4622293802 283.7253601854605 -0.6576174528309706 0.753351944016915 0.00036630320922970925
-879823.5621071521 -273231.1948326256 1601.260733230761 -0.9550065993408074 -0.29657945689246307 0.0017380923100516336
-784855.9027848893 682822.1222856342 3.773915139217017 -0.7544442748316874 0.6563641033454901 3.6276833242639987e-06
405160.2722925649 -747221.1402659514 131.72238721105393 0.47666102543311145 -0.8790871645166561 0.00015496812608315185
-69314.11792180935 420483.9508320249 17340.163633536475 -0.1625141454102492 0.9858682758579926 0.04065581383228401
-765516.6598200701 -635216.5820348046 3005.7531526693083 -0.7695578696365439 -0.6385699296778322 0.003021620709554771
-332463.5278431804 409576.36032430077 5116.875464950531 -0.6302006442456846 0.7763717356266739 0.009699284115332493
590085.7997285269 894246.078294278 1491.549063550887 0.5507658561613956 0.8346586329603354 0.0013921607626742865
-843734.7141981806 -354705.4067853972 2434.5028109521854 -0.9218474035123546 -0.3875439196165493 0.0026598883006165638
-223332.7503982418 -136806.1464873592 48807.35453580131 -0.8382969525495549 -0.5135125747831387 0.1832022240195813
935305.6648616085 -791577.3627982952 0.08997230832484031 0.7633199297205385 -0.6460206536105688 7.342803390106008e-08
-211722.11612222705 330798.2352225221 15989.502238560815 -0.5386278258323676 0.8415612761220923 0.04067780440058449
-263185.6313394216 -984230.0801800683 576.1843955182032 -0.2583262554455973 -0.9660575686289508 0.0005655459098693877
33487.028971697 -48241.031442729894 59469.41276642391 0.40067064808022373 -0.5772015591037823 0.7115485871921442
-762890.4353998582 46266.548836311194 1498.3266432655075 -0.9981641471156876 0.06053504948581173 0.0019604072440519474
-302638.2513485221 -193093.38657912024 40196.001683142094 -0.8377878589166453 -0.534536841236197 0.11127384604250866
-607889.6580786501 896356.5251409651 2.0765189131163004 -0.5612786880301281 0.8276268690415399 1.917298305267218e-06
795719.8715481155 227878.61144826116 2996.3265447709105 0.9613482998290689 0.27531135455619715 0.003620009418570923
-869885.916680561 344829.75995906634 53.51462183881624 -0.9296236694584233 0.3685102846760204 5.718963621496223e-05
-594038.7617401213 462635.88472808065 395.5070103625514 -0.7889620769668733 0.6144416694716527 0.0005252856420287061
-264579.80168233754 -513194.7788038727 18763.493186427055 -0.4579977485324732 -0.888359775599926 0.03248032381665238
-602840.6797268089 -250162.62239361578 11786.606939489311 -0.923480764802641 -0.3832196094626241 0.018055690594470764
994695.5694313889 740753.3913272416 503.9071923580943 0.8020342962127615 0.5972778437326098 0.0004063060727318841
-174803.32892003216 -633023.410886583 8977.866175678957 -0.2661534235692085 -0.9638337498938453 0.013669589897205443
-378341.8141203134 -561112.9079774788 14064.740618729535 -0.5589364950206344 -0.828950093250951 0.0207782923573632
220609.24913906812 371266.59243221895 32755.252762603362 0.5093662718820714 0.8572200884576142 0.07562883718318009
702882.9012165907 261193.8605762161 6340.144095731334 0.937338185113873 0.3483183028234655 0.008454977564210198
495573.4558770283 -671915.5797391458 127.98148848936252 0.5935698457507802 -0.8047824642211595 0.00015328898568053325
838655.3522166242 -28802.440158421166 780.301503310664 0.9994103478293699 -0.0343233446981294 0.0009298711261715747
770376.7222868463 56521.18678512508 2229.178288815828 0.9973152148584159 0.07317126531981423 0.00288585228466999
375969.56083647336 -545670.614538955 1291.2339209462616 0.5673687727730413 -0.8234615223117386 0.001948577441908514
-982168.8198704793 -895487.9903668372 301.49980455969103 -0.7389628951760997 -0.6737460857738993 0.00022684202956253308
-500955.0830761814 -535942.2943630513 12180.24565812525 -0.6827647152324989 -0.7304496956989538 0.016600773680476057
-681754.209458356 -108434.66877279604 5492.824095897346 -0.9875549394122393 -0.15707302025341727 0.007956629371655295
-915787.0748656034 213419.87928359123 95.07023851289509 -0.973903241364253 0.22696357910091736 0.00010110342893687282
-239625.86228020076 -600112.1688585918 11888.54504183478 -0.3707688732413117 -0.9285429817501144 0.018394936204696424
455008.4572074836 -783487.6324923658 52.93820956624189 0.5022016767659889 -0.8647505261284836 5.8428930689156286e-05
835462.6703616213 -444674.3467937949 30.898234608843882 0.8827500002456327 -0.4698429907963976 3.26470799667694e-05
8970.023237964162 823514.1619320266 1100.975389594091 0.01089171694461273 0.9999397898638355 0.0013368429477073637
-727203.5118341448 -600985.1565189675 4062.393499427602 -0.7708235240902079 -0.6370341847022201 0.004306068964892623
705258.9601540979 -246204.62296923235 764.9455976520698 0.9441230342149373 -0.32959163769385774 0.0010240249319297277
749570.5678732662 -246001.95203679585 487.6945500187651 0.950138840458563 -0.3118265570671436 0.0006181906735846327
-873078.7275542439 484142.81775560667 12.419763598053338 -0.8745401101809401 0.48495318900894113 1.2440552131981673e-05
713348.6533795046 137522.00748383105 4670.800189564636 0.9818993667099793 0.1892942131695884 0.006429192410239905
-644879.736464928 -723701.1392841167 3604.8439241328547 -0.6652749481264695 -0.7465891865909047 0.0037188520882636402
-924260.3320142191 -662849.7255441366 1036.2498851915966 -0.8126239382247306 -0.5827877014358022 0.0009110868805266061
55382.46376420803 -808315.0544311253 917.9825442307491 0.06835563589934406 -0.997660374733287 0.0011330171373839005
376425.0716467038 42095.59438187 28535.199437752144 0.9909968347238229 0.11082311974002758 0.07512329664259496
564240.6914130017 353940.40843128914 14214.17928931136 0.8469338935574493 0.5312699575944092 0.021335700158513462
512945.3992266184 -361124.12773405376 1911.8622419167455 0.8176806500999955 -0.575664021897034 0.003047678687106148
346789.7473884741 847900.2761416405 2338.3160817543076 0.3785581605059026 0.9255739860990317 0.002552522504648015
781524.7896891495 189633.28389175682 3091.7545162413326 0.9717937245600913 0.2358011386011574 0.003844468756977885
-743533.7633247023 -588404.5377201529 3858.503436745647 -0.7841554968722216 -0.6205510434047661 0.004069306370292084
-115560.5959000689 -584640.7015377907 10942.14939286709 -0.19387649854996872 -0.9808541678165281 0.018357690131108717
-357905.2415121371 -433727.26968380663 23365.392579974763 -0.6359191433301052 -0.770638263387597 0.04151517974493054
-86763.35035357512 937969.461320699 184.83800986158496 -0.09210803013282168 0.9957490006427989 0.00019622415354687988
-406903.627811949 -736567.8916098082 5306.185598968477 -0.4835426268562728 -0.8752981021137363 0.0063055887137430855
215699.79914935722 446674.1433444488 24999.98157976802 0.43430245509618537 0.8993595629087894 0.05033640930715265
-410733.63867223234 -660840.8476310439 8287.068507590207 -0.5278491918835105 -0.8492713392389667 0.010650022308753516
-218810.9179391733 -135526.77839773346 49232.98638925174 -0.835000412363285 -0.5171813039047413 0.1878771147440145
444314.9565499355 -658677.4324916762 241.69814248205338 0.559220055793369 -0.8290192016221959 0.0003042041388241608
-716797.2761641619 723139.1870546537 5.507548599234389 -0.7039856435346262 0.7102142026655619 5.409109763472763e-06
-700670.0269272968 656869.9777422304 15.473378016444444 -0.7295414498128331 0.6839365999458038 1.6110965501297544e-05
293054.3518776635 -981106.6985633577 20.469019380624662 0.2862029217124114 -0.9581690285141035 1.9990466320624083e-05
833394.1955847392 -270458.0610567557 159.7020249223924 0.9511665022775655 -0.30867823331506444 0.00018227054766741668
983528.2273297621 -630246.119481055 0.4205163641472217 0.8419649645122881 -0.539532203425979 3.5998971435452353e-07
-94387.35761889452 -356680.93085722637 33177.62845444163 -0.2547931164358516 -0.9628391793029795 0.0895610552420609
250180.86650354066 -705866.871833781 738.8724741306372 0.33406807061508387 -0.9425484341796324 0.000986621020676344
926307.9036102293 -928507.8918203955 0.01183824861096413 0.7062675883938138 -0.7079449792069906 9.026125400296888e-09
775513.0445436302 645639.0616654251 2758.583145556903 0.7685213735651913 0.6398182751270773 0.0027337130213776887
636847.5395640507 525252.9074535406 7667.169662486979 0.7714270039075032 0.6362500465464036 0.009287406096020518
98735.6340227092 -431058.66205238126 14717.94193627553 0.223148093506029 -0.9742168526929684 0.03326337766420716
134891.82570213935 52916.19086004209 56417.08134983615 0.8674972901708461 0.34030714565769105 0.36282157896210343
-529111.8637437837 960938.4309541957 2.153362927103074 -0.48233563293978554 0.8759864937273423 1.9629944848416433e-06
15224.125718465386 86134.39455361803 59016.63835359364 0.1442810381958439 0.8163069656928167 0.559308429919053
-721756.0424705035 596014.9699932932 24.444847022823296 -0.7710762419944421 0.636742827481961 2.6115251787806018e-05
-615510.872320614 277764.45671461575 1432.1854654219333 -0.9114841626624829 0.41132970127949736 0.002120863218558243
744863.7441288041 942846.8603641773 721.1290154006072 0.6199061086692862 0.7846757650461526 0.0006001530955280352
-716688.2196797633 547144.5131754465 44.82584660414204 -0.7948452002886965 0.6068122486457538 4.9714238414718176e-05
-39608.92158487964 959405.2166108823 194.69100154779338 -0.041249732279496236 0.9991488470077025 0.00020275613093539033
759470.7470437882 -249169.02979556465 429.1364685618939 0.9501693005837594 -0.3117338800599456 0.0005368900642659377
912916.107174342 124231.43057229332 747.7641713935451 0.9908671661133155 0.13483916494187045 0.00081161342165726
-185053.83348105196 -655797.5576144755 7853.233458958889 -0.27155807462166076 -0.9623530555264574 0.011524262521628028
91250.01168645965 -730185.8901178852 1603.3927636069402 0.12400336481374044 -0.9922794051276788 0.002178915861276171
250199.11515115527 706364.2469329659 6111.12107689486 0.33386976756361764 0.9425839367828404 0.008154779333505531
-739670.3591470848 -939844.5420347457 748.622825847451 -0.6184524909433371 -0.7858219420758293 0.0006259378190526224
148684.93213472544 183731.71828387814 51664.146298288055 0.6145593516901354 0.7594182144236499 0.2135433886866928
582875.227526144 -618024.591472368 93.78707857932687 0.6861165047884157 -0.7274916698278965 0.00011039903483679614
-90818.38427041002 646696.1890957431 3349.074902252497 -0.13906790195321056 0.9902695686690803 0.005128353954785742
503252.1515865769 906921.4301327745 1499.042047074672 0.4852054071699307 0.8743990073195067 0.001445286035087292
969715.1879559403 653926.6647218505 754.928201343993 0.829098629072085 0.5591020002248341 0.0006454574957225463
-737080.2261221319 -446592.78664805176 5144.429487089267 -0.8552455933811611 -0.5181885217922967 0.005969161148767784
210217.41665127024 602297.827325025 11428.42626887325 0.3294779344285882 0.9439933532580428 0.017911999589854264
-10324.398265872562 869887.199469305 623.4143250033303 -0.011867824384790773 0.9999293181089497 0.0007166104539533778
-604875.3852765067 169103.47108885724 3124.940945217057 -0.9630601826443574 0.2692402827372169 0.004975415218917917
-602788.2962427114 -753872.694409256 3512.3313825953996 -0.624495149725649 -0.7810202090911603 0.003638813039888267
636394.8426597868 125412.27114764518 7949.935773665946 0.9810565268972833 0.19333363332767264 0.012255499033543648
-245591.79745058352 -63193.23537911293 45763.0899832134 -0.953059653309994 -0.2452318181109966 0.1775912515261075
64711.103018967246 734532.3777411861 3135.515165932404 0.0877576710304413 0.9961327772163758 0.0042522147762216736
-258536.20990261942 -842878.976973187 2147.3874025084438 -0.29324437019920885 -0.9560344171895878 0.0024356714545304536
-193609.209140907 -426942.9899688111 26959.11290253141 -0.41231577471491565 -0.9092301468985181 0.057412907016960314
477973.5390616673 -922807.7041833042 6.750456377348256 0.4599232763181118 -0.8879586588679801 6.495531153894987e-06
715472.3264207812 459128.9111199051 5776.874903188887 0.841596235108198 0.5400644424094604 0.006795226020182226
-368142.89651216567 -566713.4900810303 13866.921982868693 -0.5446439196781868 -0.8384164396393228 0.02051522605535766
-2725.382650286093 -632916.950823276 5617.796770415864 -0.004305857238770002 -0.9999513403949207 0.008875609040548724
-93513.90161137532 -674261.8900752991 5569.0435011995 -0.13737124616179625 -0.9904858473767799 0.008180884686731624
410485.6934855149 494849.44716697553 17393.316342086924 0.638215480077874 0.7693826666850362 0.0270428029906554
554537.2066177648 -713894.871700686 42.7541298410739 0.6134481069327514 -0.7897350301611951 4.729608708229035e-05
-707964.9447150909 13373.516491802417 2871.70680712504 -0.9998134079024996 0.018886558153935442 0.00405552702963838
-674083.3405640736 401535.78797641385 302.85049864117155 -0.8591271317456974 0.511762076079129 0.0003859865161889613
94740.52491986885 869484.7509674905 1026.2227319440115 0.10832048338639086 0.9941153334494804 0.0011733198911479264
-661820.0758783908 -785006.3431056289 2489.3612565483445 -0.644568023383856 -0.7645431218565206 0.0024244696150869808
15275.865577840777 39258.8710960524 60871.45705317557 0.20635629218554497 0.5303342735958235 0.8222910913569624
-834698.177489975 367594.5977628076 66.75385438956323 -0.9151826529699869 0.4030393359784734 7.31904911304858e-05
443512.43829451303 402816.9912650048 20810.30278161109 0.7398063395936825 0.6719238021370062 0.034712879724190585
-328867.9001011667 -686376.3184329493 7370.771523163047 -0.4320777437558474 -0.9017843667464146 0.009683968330410006
-435369.8176155118 105494.28630490563 13988.497264269563 -0.9714021220053549 0.235380059502716 0.03121129526295718
710409.8089313718 -590113.9787654072 30.004746759139394 0.7692290276198278 -0.6389731621997261 3.2489025184253385e-05
684202.5811512634 -833752.9577443453 1.8882514175579943 0.6343706862985495 -0.7730289983965947 1.7507261455297741e-06
861971.966451108 323246.783614693 2028.7736681278989 0.936324298184739 0.3511295373730336 0.002203772460033107
955220.892439295 -89743.49595479619 147.61610264294418 0.9956156416925271 -0.09353860349996836 0.0001538585492845518
-307344.4833316112 -235001.809625599 38539.80194772053 -0.7904784459850354 -0.6044158114140723 0.09912292038551052
57426.57535954066 -293099.099590573 32475.00683761605 0.1911465256407965 -0.9755914261719256 0.10809428715376335
-712680.5115098788 957914.9982429779 0.2002812911444413 -0.596910254404316 0.8023080132885042 1.6774691396594502e-07
-371130.2667482635 916985.6967302688 22.670244430793517 -0.375166169989892 0.9269575742017199 2.2916774884341272e-05
703623.1912472597 -283686.1882066619 589.3429882306009 0.9274562050455429 -0.3739309886469166 0.0007768217678636412
-916367.130313422 349542.67518553353 28.246419593347724 -0.9343348626229676 0.35639635752609067 2.8800263232177055e-05
197461.8035431368 589471.0678121282 12153.843856600133 0.31757312193836335 0.9480322975807479 0.019546737991019712
-646409.6533791431 -141323.7461652699 7689.923665557783 -0.9768587666332867 -0.21356942869482157 0.011621066158544592
-830015.8837044522 668442.5444357845 2.44569795862424 -0.7788370407422965 0.6272263259482306 2.294896035173503e-06
772338.5608276014 814126.0380177294 1402.0159173127186 0.6882423430455806 0.7254797835541573 0.0012493571716586762
912641.2563602683 503123.26462702965 1433.0244020903897 0.8757403495326997 0.4827804359619892 0.0013750827962571606
-674616.74508413 261144.09117802564 927.5516281822343 -0.932566342584509 0.36099636092945825 0.0012822145844368863
646189.4646508871 882491.573782482 1439.7423732448951 0.5907856939497387 0.8068274482060065 0.0013163000073761128
665197.3831006349 -411055.793533399 305.40206379260366 0.8506843695598749 -0.5256766599801734 0.00039056191244876194
-404138.64891966904 804738.4740975444 67.76916977480215 -0.4487848100169898 0.8936398539873768 7.525579170340395e-05
423665.514440853 -327885.3509143295 4777.291827979854 0.7907950411886061 -0.6120160851978824 0.008917078589375578
-262467.3067339058 606312.9258277952 1727.9430171425777 -0.3972641646784676 0.9177005738734978 0.002615372740548874
-322240.98503344716 -260793.83628574543 36221.49073613327 -0.7743746488549382 -0.6267115133611718 0.08704356513459716
344925.6075980741 -151795.3566253213 19128.64324849122 0.9141107013306774 -0.4022831498935874 0.05069411232510725
643294.3353836325 223616.50246654433 9012.333884212485 0.9444769837530158 0.3283110516448895 0.013231799901455624
-605909.7002367022 -126052.99851658025 9762.335906332079 -0.9789160882457315 -0.20365296705316094 0.01577216485201366
-439059.4717824962 -46846.337167427555 21560.53914017564 -0.9931727233838902 -0.10596856976173502 0.048770931392367406
959124.9508241811 400594.41171936796 946.0724216751008 0.9227486402447076 0.38540124348348453 0.0009101911486335066
-140713.68630205718 -262390.8560760255 44964.4588359007 -0.46730656816133703 -0.8713933498024647 0.14932582252682605
-897746.6657927196 -399587.8893245884 1615.316920547737 -0.9135875814099665 -0.4066386958356606 0.0016438195037468775
-289041.54505237774 -572.0297044203103 37196.728993825476 -0.9918189954854388 -0.001962866364844452 0.1276370923747821
-612527.8151718832 36342.43473205113 5620.978673187402 -0.9982026149394173 0.05922525064860722 0.00916019725327882
