-853213.710138972 -53005.72514826681 1078.0985244240605 -0.9980750293050664 -0.06200520461875337 0.0012611414978118784
-570241.0075583067 -959336.4989039416 999.0877196567407 -0.5109591426459288 -0.8596045329812313 0.000895223244027547
-662216.8809758908 879487.3332061587 1.5457064804263845 -0.6015111913007289 0.7988643731810843 1.4040109413586227e-06
196405.4492368325 -937785.9779779859 92.0967640443623 0.2049878014848571 -0.9787645232654959 9.612112728378965e-05
-238434.32740951263 512990.8523892806 4533.000269587234 -0.42147584963878937 0.9068042245290925 0.008012898817022086
362403.4228145079 797156.6117021408 3674.123276438284 0.41385562173739726 0.9103328621896764 0.004195756654562528
776164.2452128922 509126.3036705848 3930.5930819047258 0.8361547859361931 0.5484772045166761 0.004234392703957727
-972432.0870239114 -889259.4879301136 359.27553634410225 -0.7379612375486833 -0.6748430465958889 0.0002726477488344553
455147.12583004864 -355937.16565823904 3304.6140034331947 0.7877146080550532 -0.6160137876898265 0.005719233576923896
702991.6338238216 351165.07163931004 6921.320741934522 0.8945607863914641 0.44685951798624535 0.008807419360162933
-343044.4965729043 -892475.2685748404 1703.9538134678664 -0.35878241264021504 -0.9334195221900458 0.001782126418966093
143429.88349810414 396125.30274340237 30283.77760588252 0.3395758140417993 0.9378420233006958 0.07169801844616501
407287.5210900298 -24050.14964682699 21810.74424640103 0.9968377709968103 -0.05886283356268932 0.05338188025053178
-897127.2127492416 610395.9549748641 2.3288160014375103 -0.8267767242827551 0.5625302197923867 2.1461960330300953e-06
637411.6444401116 -312400.0783417626 972.5087620293069 0.8979513967643382 -0.44009250402489447 0.0013700182744493647
498380.6565440839 314599.9054438312 20043.685360607593 0.845128082128595 0.5334822113066188 0.0339890426026214
-733150.5287453098 718738.0132792318 5.449565075114728 -0.7140908616782151 0.7000530274482715 5.307893082911561e-06
-924845.2353260035 127667.4356275047 178.9427820595183 -0.9906062337359126 0.13674521179006247 0.00019166648496353198
-753693.8230418 -6729.468865996609 2222.622062821341 -0.9999557943116504 -0.008928255983358323 0.002948841747585679
687014.9511373916 -188590.76511992683 1435.0510854542524 0.9643247557105417 -0.2647143896977113 0.002014301559408234
902321.1896607091 817093.4364288426 761.0237160151779 0.7412463730749439 0.6712327640714777 0.0006251721402357645
-599189.4803299339 -994026.77908352 730.3724500156358 -0.5162515778570942 -0.8564367532812908 0.0006292766180345889
338171.8562162506 438477.6589088676 24244.308503731656 0.6101257141594713 0.7910962721086726 0.04374129830213528
-380062.98659441574 -279617.80938239617 31064.270963157924 -0.8037494074727706 -0.5913300072279051 0.06569408298329314
-732725.4838790271 -567322.1830134718 4513.650119192495 -0.7906877706612987 -0.6122002332427173 0.004870702642135267
841856.9003433059 -846649.9467655175 0.20294002738097594 0.7050967258017047 -0.709111138865895 1.6997229431995147e-07
-479189.7400723395 379689.34808973805 2320.487120670299 -0.783776788505345 0.6210310300686694 0.003795456770281477
-60404.415346689304 105210.03272754225 54527.02913767173 -0.45414233349409794 0.791007238388828 0.4099540093047212
-192335.2933526504 878525.5130322771 192.01243786570032 -0.2138643610411742 0.9768633422807455 0.000213505366697382
-740268.4278208611 346589.59408875566 262.69059676827135 -0.9056521421946627 0.4240213367911172 0.0003213784253880819
-43644.32182658584 910152.5801542874 362.8070428899028 -0.04789771118270342 0.9988521666034241 0.00039816466903618404
761946.9917734424 270304.2517426828 4392.175065543096 0.9424387976178105 0.33433456231703584 0.005432603885032676
-169507.73745829595 -517742.0916922508 17973.53790688562 -0.310977415535177 -0.9498451221310483 0.032974095755847005
-89484.9525060432 218731.34405818727 39558.34043746867 -0.3734515157452073 0.9128412061681542 0.1650905742587272
-241011.8707190807 -7780.338974523171 44294.52043071455 -0.9830321979648318 -0.0317342199793624 0.18066719969804462
291050.10750064725 497348.4816402631 20432.46002985467 0.5047576799449274 0.8625334925063143 0.03543527679409625
-546152.517113833 -934169.7602047315 1248.1231376875558 -0.5047117503631974 -0.8632871588707296 0.001153418493464153
697195.02955511 -368802.88737748883 343.58686975528394 0.883945256139508 -0.4675901991956407 0.00043561983479114755
-110485.5677116682 -72832.58101830626 58395.48200014763 -0.7638486163890791 -0.5035324286341466 0.40372067640175097
-616482.3725285877 -268038.2086846625 11365.179005903656 -0.9169377167701821 -0.3986721340796924 0.016904232388046832
-567794.4228231551 -719794.5314036347 4823.6671174256735 -0.619323597953524 -0.7851182066207333 0.00526143046569626
334325.99729648983 278787.85339085315 34972.76138538853 0.7655480362639654 0.6383754043163508 0.08008150433353549
863145.8954842695 298156.790928695 2051.8724711751834 0.9451948765974327 0.32649899939618077 0.002246919503797191
470910.8815597997 981816.8177652364 862.3596992679168 0.4324613254357202 0.9016521362586448 0.0007919486109823395
445386.7418676119 658927.9714724676 8339.60790066208 0.5599691739163423 0.8284470936619963 0.010485097350086925
447173.1730181779 -822925.7937787109 39.59645474899826 0.4774563574605811 -0.8786554642936251 4.227798131360826e-05
386576.6550469321 -4159.047771651422 25308.500789896352 0.9978063186139781 -0.010735061447172374 0.0653246430510389
125036.64221379341 226729.17277631245 49139.87550040485 0.4744446159548756 0.8603112927464519 0.18645853685031283
-175034.13205811198 -637005.9653869135 9066.950462890823 -0.2649309715831793 -0.9641697155284334 0.013723700441652786
-909482.6704286387 784966.7265518523 0.18145934064608507 -0.7570270272126683 0.6533835627481971 1.510414982888398e-07
-666436.8614890946 16780.91692919222 4191.185062610903 -0.9996633770426679 0.02517157896972552 0.00628682843883923
99603.5186168862 681384.3864553988 5606.222451556348 0.14463619090483645 0.9894514126354351 0.008140903775469787
235629.38638833037 999285.479798743 491.377057645816 0.22950386527399022 0.9733076321304869 0.00047860301198093775
-95262.59992014803 -21839.44248924252 59086.81667521229 -0.8341242575341337 -0.1912272892674429 0.5173672262837642
873701.6245625782 -76475.94017198225 443.42984180077855 0.9961909116981745 -0.08719754481519267 0.0005055968375918426
-394003.8505579103 511063.3394717086 1608.6016943093334 -0.6105635009780136 0.7919633813921283 0.002492750973793631
-103146.78299300508 77244.71458108515 53411.56341289641 -0.7394310129537085 0.55374618471509 0.38289285707066145
-488821.38536722935 949248.0394254517 4.757715673811073 -0.45781952199959824 0.8890451536655513 4.4559734512388766e-06
769090.7729227002 -300328.6602266634 282.00057145529473 0.9314972795076975 -0.363748129360858 0.000341549755085444
-264623.83440079045 -933212.7959923233 1025.9096856538952 -0.2728061995054082 -0.9620684273620406 0.0010576315735609002
139694.7352834348 -854032.7407009571 366.7163375885872 0.161425443112076 -0.9868848193896155 0.00042376219240880037
94873.6994780763 -157759.02807546227 46277.19055842959 0.49981656103144373 -0.8311109961782565 0.24379892811554216
-273871.2772603733 585690.8975572882 2029.2487527427836 -0.42358033574986426 0.9058531055708171 0.003138517761355439
767368.0723023242 350487.54694824084 4521.848717991182 0.9095999851739913 0.41545052369886415 0.005359974796062874
506139.5945910678 -385385.31100922194 1789.277113343554 0.795614081789767 -0.605797261527417 0.0028126115459321927
-174247.54718745998 -640296.140975624 8862.869197227817 -0.2625628049773385 -0.9648224810295873 0.013354907051104013
140173.64009235048 999997.0239622648 343.08926704292287 0.1388168929994227 0.9903180068924122 0.0003397684902879743
917140.4891957742 592060.4042801191 1340.3756602895007 0.8401470626369547 0.542357267419049 0.0012278518799336434
19098.79730202208 807240.7695509155 1439.5965896208313 0.023652700036653103 0.9997186460282137 0.0017828529079412369
785823.9320711702 609830.4282711634 3036.3417567685487 0.7900135721944549 0.6130817545879259 0.0030525300894636777
841798.5260149115 -393639.3852544402 53.264108575214905 0.9058529356498034 -0.4235923225099615 5.731709860082792e-05
-414402.3695030899 -640857.3168372303 9508.950057588121 -0.5429597210616356 -0.8396663137025241 0.012458849781790578
-176900.66957605156 -765799.5499482699 3580.5384712801015 -0.22507182112332283 -0.9743315259085477 0.00455554134568538
-155198.61096812692 -587379.0523350087 11965.237293613305 -0.25540603175476345 -0.9666333477918027 0.019690857779606597
578441.5600359972 921561.0773134214 1323.6971461205396 0.5316272810130147 0.8469775404607339 0.0012165680395318703
-992178.5155437131 285671.4379832701 21.38904600225962 -0.9609611786309722 0.2766832353703725 2.071607330144605e-05
377048.49897121795 575602.8100453314 13583.736452652605 0.547847747098604 0.8363452011276464 0.019737034978449773
-434594.5533365496 766846.3561458959 87.85323718547673 -0.49305403398582415 0.8699986836978747 9.967081423468402e-05
213290.26066566794 5117.48041200559 47503.279135227116 0.9758172043588798 0.023412815069096274 0.21733067838609585
-178237.41086538084 562281.4471023419 4379.783353128377 -0.30216320506834665 0.9532272903988395 0.007424980923257493
755393.6895113912 443629.13675949915 4809.094218662927 0.86228023309972 0.5064016826805117 0.005489570460337625
84848.84734624895 574600.2828239525 11234.642351731512 0.14605446231535338 0.9890875124282107 0.019338738230484445
934370.2079792358 -7014.038168364002 342.7225589838511 0.9999717586439115 -0.007506489421985442 0.000366784896508215
-8218.644682965898 -285280.2355449648 38707.228458095924 -0.02853582395132775 -0.9905169151766586 0.13439474506220503
-845285.5252331176 -196995.80040255786 1931.580542419413 -0.9738993125528275 -0.22696954917681159 0.0022254787361748393
-555862.1658568622 399405.5643015917 1046.9579816048836 -0.812097753738415 0.5835194073695427 0.0015295738356453828
-452205.8874236438 361749.4676778719 3244.9800767453066 -0.7808693893329733 0.6246691911211469 0.005603433483279515
-341023.77250372525 -125440.13973628131 36456.32200207699 -0.9338334140822825 -0.3434956838723335 0.09982920366559107
942796.7797576725 343230.15422265505 1094.0120184604884 0.9396663727098469 0.3420905129798402 0.0010903795252164249
743207.7683309789 -433198.49105323554 116.78948255623729 0.8639505462033024 -0.5035766429088453 0.00013576329735069112
333447.66267792974 -410630.0527502132 5272.603198966525 0.6303457750812212 -0.7762505119805957 0.009967270795832336
-960166.022305304 840563.8799309473 0.03508512398411681 -0.752414105591406 0.6586903777246816 2.7493726677279666e-08
-887069.861046313 -547592.7652960765 1776.226097403364 -0.8509268240509552 -0.525281483576797 0.0017038550155194108
948179.7765871286 -394796.0523935178 13.353715749346346 0.9231732846298399 -0.3843840350179915 1.3001536137703613e-05
5685.511508883461 -501346.47788031335 13763.20690810337 0.011335484359341563 -0.9995591689056874 0.02744038357805132
-248974.66757330415 119504.84463660629 33019.575520139224 -0.8951518036397804 0.42966209479385625 0.11871702800273894
738635.5175546427 -786358.6396855781 2.0724593923889616 0.6846434445165294 -0.728878147482041 1.9209687366825616e-06
-562429.2817952196 530722.3117215101 310.2913372048703 -0.7273105474057775 0.6863083903216364 0.0004012560683138725
-666071.9581823706 142882.0169016474 2272.9330722398763 -0.9777511406780273 0.20974168525153886 0.0033365207418908764
885070.8898773609 -937958.7010226705 0.024950866892227034 0.686304197218135 -0.7273146147856311 1.9347472466006845e-08
