-690697.6192233228 -130177.3090069622 5422.415600774286 -0.9826694583611328 -0.1852058877466909 0.007714580234710469
-324229.2223271267 -235430.5936219869 36958.61828848825 -0.8057577014224465 -0.5850799400492623 0.09184764749500608
-344775.1160447442 -976597.404164512 740.5893083248421 -0.33290046484870633 -0.9429617007922749 0.0007150821318883294
687236.6869676901 -726766.6591464535 7.562721088535024 0.6870704220203183 -0.7265908306107742 7.560891419881388e-06
142481.2240342602 806554.5812509508 2180.70492648276 0.17396003010970476 0.984749114773172 0.002662494635644798
171514.9201786138 -291256.2817734499 22871.657304961936 0.506274887818128 -0.8597254467869011 0.06751217750750585
-104628.53139534294 -377856.2047052091 30876.155202532744 -0.26603512130246737 -0.9607610841235086 0.07850766502324452
762234.6441194025 777027.4091839398 1750.9292985089608 0.7002780318107824 0.7138683986149587 0.0016086087564495652
230308.4151217041 -654734.7725148891 1377.2114144435825 0.3318270594069827 -0.9433381500207333 0.001984278401616591
-503085.10918297793 -247408.8173262777 19610.890549498596 -0.8968085892177221 -0.4410354200042611 0.034958727193418714
-245675.94096946358 -769435.3856570607 3799.9409983670184 -0.30416204034208555 -0.9526086921223609 0.004704562451992458
207276.17022206375 401265.97327228996 29674.327140632708 0.45795471239282803 0.8865546057999244 0.06556227827144884
-131370.5843852252 577374.1190253487 4741.267498802282 -0.2218535704021322 0.975047118523478 0.008006869481195465
555698.5354593328 -739617.7095465121 30.62620126432906 0.6006813869390629 -0.7994885054139304 3.310534017680233e-05
125930.7434216336 -895475.9205093922 230.41093628873907 0.13925964388452422 -0.9902558692898311 0.0002547983444141043
-851091.2209127342 355703.88818600005 60.41174440855917 -0.9226597246377582 0.3856151296852888 6.54917852414354e-05
-163062.29845976393 -641427.0652414262 8285.974417995434 -0.24636190289500579 -0.9690970497403448 0.012518825284806112
338098.78852715687 -35998.249977817424 28458.4793610123 0.9909146574292717 -0.10550523916460897 0.08340735099886469
-779009.0583957786 -53684.17712887706 2029.1610928383197 -0.9976305261953574 -0.06875012979661216 0.002598625814380401
514594.3284909967 -788009.3116226961 26.4503112176494 0.5467710259509732 -0.837282177279962 2.8104203642519796e-05
-874670.5131333795 762030.8154571161 0.34969970442980897 -0.7539872303825998 0.6568890746692972 3.0144964034981503e-07
-774844.4195259605 417704.3306743274 84.08180484314126 -0.8802431766241613 0.4745228560171881 9.551909147993771e-05
-826771.0086021305 -18979.051465566812 1111.6102352145535 -0.9997357204027609 -0.022949565831499114 0.0013441647659952073
983832.9923072744 -941376.2193115754 0.003487007364141045 0.7225249820621591 -0.6913448128799959 2.5608512348402124e-09
-337783.7643903166 459263.9072934236 3435.6345822884578 -0.5924818290323848 0.8055612746601498 0.006026195678395763
766101.2997068445 262690.85623907024 4003.225290829913 0.9459239522799788 0.32435080459536914 0.004942879865127538
363152.0785283479 -364996.59951969713 5636.204956759365 0.7052710452611539 -0.7088532559229977 0.010945971112896932
90444.97607959757 -586430.509025374 5389.184650553343 0.15242114505462584 -0.9882739048098194 0.009082048898163731
-71281.03930184594 168035.8839471565 46681.18015934907 -0.3783408453675328 0.8918898911593373 0.24777131951532663
-825661.1865423045 128241.1270988044 492.06348576748087 -0.9881517270325706 0.15347904598733866 0.0005889018294623321
-390412.25510547444 -299404.7956987176 28906.59937973478 -0.7921532180089279 -0.6074975088473319 0.058651990097404856
-181400.09644172143 571403.0658591916 3806.6885457477397 -0.30257651457050366 0.9531039479800921 0.006349580704869443
-402502.12507237494 -944354.3400190013 1075.5951109661373 -0.3920903437747955 -0.919926119040218 0.0010477720005711017
666845.5252553967 -162901.3011692926 1888.9551450272754 0.9714307283957788 -0.23730732779664154 0.0027517453487267735
464141.5542756839 -746115.7091097351 74.6174609715051 0.5282130967822395 -0.8491118402052046 8.491788716331162e-05
-607229.2179403285 -405006.8676178708 10958.992945488257 -0.8318380286262618 -0.5548153883011171 0.01501262919861654
926949.6744613306 -665222.6522091011 0.6142216962316411 0.8124398477322669 -0.5830450186876491 5.383444162168554e-07
-818461.6487672963 -352864.7674258858 2949.396088849297 -0.9182866022910144 -0.3959024700005872 0.003309123790123822
314363.35437190084 709426.2721057404 6300.089713895746 0.4051162806536593 0.9142291197639588 0.008118849977845745
-255153.31366225716 185450.50129449985 25386.865028282755 -0.8063030413412974 0.5860370812583421 0.08022434115639432
-82213.99711458637 -957278.767613493 386.15688127191663 -0.08556802829087921 -0.9963322493035252 0.00040191067337766787
-683020.5402475598 539404.1450320103 71.34325073899014 -0.7847836186050078 0.6197698486129442 8.197266579669177e-05
791635.3115103061 -403489.82299085293 78.99989919958485 0.8909466537650178 -0.4541079742086009 8.891050565362193e-05
-345852.90005673503 157531.0250019983 18571.659385337036 -0.9089592145103934 0.4140178576595547 0.04880942425025588
-324932.2636856885 -949984.7272249578 922.0994423726169 -0.32363180409912273 -0.9461826525045299 0.0009184089714849356
740409.9467947129 -675881.0358806746 7.316946261954393 0.7385577272757575 -0.6741902427564473 7.29864209040158e-06
-297100.41565414856 -223636.07280248994 39808.256461362296 -0.7944132653646678 -0.5979778333772784 0.10644282315901692
-457029.9422968854 400697.38503380504 2224.9382472103903 -0.7519221264046786 0.6592417737122651 0.003660548561771849
490201.6065294448 -980226.5118494177 2.542130248288669 0.44727808582519357 -0.8943949429279945 2.3195337106766125e-06
192312.3185591861 246153.23646630783 45317.22689985355 0.6092759166259678 0.7798524811207135 0.14357215993866643
771382.6699546465 -988807.1642575847 0.050277481648757824 0.6150878588124892 -0.7884585759197915 4.009043726071382e-08
35691.34978679307 375873.0550107689 28226.970289934216 0.09426757272180829 0.9927514862580821 0.07455274150229275
-587263.9514052684 -903947.9922070814 1388.5425845998461 -0.5447907768122643 -0.8385710168212525 0.0012881178752601925
460772.1729288936 76900.40269772788 20457.849037086755 0.9854129487257278 0.16446013243134394 0.0437514036841206
-643378.0778482873 865870.1628331408 2.0105625301398264 -0.5964197204036341 0.8026727335036222 1.863817222511556e-06
66906.9051845603 -479825.67308068846 12357.189602020127 0.13805897573111042 -0.9900957273734023 0.02549842852040502
-414303.65850514197 -905064.070992372 1522.2973596893094 -0.4162246369801996 -0.9092605306741366 0.0015293557102507103
479847.61985353136 -55199.05474306904 12889.179955125328 0.9930949536377138 -0.11424023052911336 0.0266755091415697
587598.2241974127 369452.6135526925 12516.551929229578 0.8464306683395099 0.5321936141592599 0.018029995630491596
275704.41691615613 139619.712118732 43511.851963683184 0.8834145205509464 0.4473707110696745 0.1394210592297857
430092.755442234 788037.0455540441 3716.569635801359 0.4790663761111067 0.877768915839328 0.004139766421215784
-130659.33551789299 -552857.550972872 13628.87672624313 -0.2299324763398707 -0.9729110075030227 0.023983907181027792
-648746.0645903238 230118.08888542317 1457.0875898693826 -0.942463229687372 0.3343031258268945 0.0021167781214254926
-53369.35219075832 -709802.9390257911 3678.1110392658675 -0.07497633044212274 -0.9971719258455447 0.005167221586222869
-91822.3893847155 705086.6497791434 2000.095074679406 -0.12913755455526713 0.9916227002169595 0.0028129020444018927
-564684.1395353782 -798995.335155876 2940.6495097521674 -0.5771494436399723 -0.8166330181250931 0.0030055638358996084
-186592.58244399773 38506.62289243577 47190.95948633328 -0.9506362701142508 0.19618031907644404 0.24042455022382742
-457783.61604297365 -452302.85801381024 17682.80233705685 -0.7110838616477333 -0.7025704975876083 0.027467027936202048
759720.0928507368 221803.05176763525 3927.259486887393 0.9599140993712054 0.2802504220684677 0.004962132486461955
-314915.32577169675 23050.28333734439 32244.26680839626 -0.9921722285110758 0.07262222291208714 0.10158878732750301
447372.1071310131 -169418.86799944355 9848.204174156988 0.934989214451773 -0.35407843220256785 0.02058233970733262
360372.3946322795 -283862.65747685835 9380.762766145273 0.7853985884126783 -0.6186526321276284 0.020444512244847654
672404.6157855636 357547.1952356376 7986.937960440115 0.8828863464391338 0.469469616166084 0.010487076247819528
430932.7562498118 576584.652802238 12146.160986194078 0.5985752036142237 0.8008889344022494 0.016871288339073514
573211.616113537 437501.1027405485 12181.603773443345 0.794804313211871 0.6066306992359743 0.016890779860003823
411811.8459922899 -550592.4204862675 921.4898379961809 0.59894480969086 -0.8007891849511091 0.0013402274874361366
234627.303955949 -824452.2860722457 233.60291354081633 0.27371737717844885 -0.9618101284360322 0.00027252231823641924
-603285.1618272983 265354.94800273096 1730.51199311771 -0.9153625018579475 0.4026221502754263 0.002625699897404195
-886868.4732259972 -240521.0695156596 1389.1203207936358 -0.9651352759132138 -0.2617472328738235 0.0015117112227578027
105630.66395602892 -873155.1727292544 339.7282713230533 0.12010016233713923 -0.9927617044417054 0.0003862649254330056
550960.8329925718 470850.2813142517 12429.698015991855 0.7600997659410849 0.64958009206633 0.01714788055143142
361396.0663095612 930183.6233239087 1170.019662116147 0.36214829461270137 0.9321197552130212 0.0011724550010340875
152569.0282059123 -663475.442784364 2068.669379052334 0.22410435424329128 -0.9745604164221172 0.0030386102657067884
-277759.59596194926 713112.3572302479 555.7742120047269 -0.3629433960072863 0.9318109056558512 0.0007262200221010628
-692845.7080557024 784247.9307774756 3.2944723020031943 -0.662084786834238 0.7494289392816044 3.1482045229436907e-06
-908248.2287990313 765871.2813834624 0.19799064153038176 -0.7644835941194777 0.6446431837242506 1.666511339519045e-07
-689770.646243249 -85511.94399406861 4808.7908772269575 -0.9923792323550531 -0.12302680289485089 0.006918450683990929
-427716.63999575074 33887.622213186725 18608.31338622267 -0.9959398399905757 0.07890745855713624 0.043329529233543995
624638.9457551095 -701484.1166289609 22.205208332610383 0.6650163072886784 -0.746828836133992 2.3640577886281366e-05
-80940.94960348272 -431489.27105396567 23766.023663080854 -0.18409975402749873 -0.9814200235565533 0.054055692847920805
809744.040416063 -741026.339716563 1.2138827424196368 0.7377161637179831 -0.6751109996052493 1.105906157063104e-06
261191.88539050092 288324.88395237376 38816.47616397282 0.6680576600865765 0.737456475839512 0.09928196735568699
734353.2490166753 546731.7238786961 4459.081906244026 0.802100083364586 0.5971697706633392 0.0048704488929777094
527896.5850875243 565657.127511703 10124.012241693317 0.6822252654561938 0.7310249675319972 0.013083731045401316
605004.3571089004 -129658.28033804458 3847.4385024878925 0.9777787130442732 -0.2095474272124077 0.006218043594688442
-240058.45163186608 -724064.2450728993 5294.361829089442 -0.3146903660762045 -0.9491690077802495 0.006940329119055599
-601678.8926092641 887097.0014297421 2.52607610025704 -0.5613226800282805 0.827597032909323 2.3566454199557485e-06
-205869.5926131408 724371.375384271 833.4283860411941 -0.2733780105730799 0.9619060445257688 0.0011067248506156089
-597876.0886268418 -257310.25611272588 12135.88628637742 -0.918384893959016 -0.39524887643088763 0.018641679860138545
674370.1310214554 -428905.56278518925 233.93168942771246 0.8437969122511834 -0.5366625431309093 0.0002927040035385649
500430.6560209637 791954.6663316844 3411.978819551604 0.5341792563335781 0.8453633877562534 0.003642079649847918
-135244.40718085284 410694.0973575965 14297.518867852754 -0.31261287987408726 0.9493055365355139 0.03304823202305647
-29086.52037457739 430349.2554954142 18610.58282382595 -0.06737164199418622 0.996796302903347 0.043106755540475
-789873.5430870049 -252427.07160901566 3273.027460151383 -0.9525330379808413 -0.30440964568661083 0.003947045469871247
796766.4096943759 -996479.1278499466 0.029966072237736827 0.6244957861710001 -0.7810281768634623 2.3487041638390157e-08
300418.2705465019 -4107.29323971025 35378.33417683068 0.9930456311807895 -0.013576836056784723 0.11694461901017292
68705.50069465426 -756061.136723448 1412.4941676449578 0.09049988499457959 -0.9958947279408584 0.0018605578655993865
-275303.5661251635 947000.2649142666 37.450072660829385 -0.2791543224336335 0.96024625113801 3.797389843461461e-05
-753701.5852544286 18918.63891964713 1857.115814815626 -0.9996820867533571 0.025092987468431218 0.002463210174184303
-802095.8615017595 -211420.1255051803 2729.883549394037 -0.966967671451364 -0.2548777973681776 0.003291014535530235
261046.83051371685 -96883.6128735134 33055.00842929055 0.9309780311794678 -0.34551852243920583 0.11788492741919968
776228.797489701 942706.9248796382 642.9421380213544 0.6356495437906607 0.771977577572403 0.0005265018227083856
243122.6115617069 -852735.8948183137 157.80635818192894 0.2741828525972983 -0.9616775611759699 0.00017796698203585432
392994.2321211654 -678436.3205824167 309.4615256373745 0.5012418939726223 -0.8653071176976014 0.0003947006559992228
326398.43048748217 -879817.8638836553 55.48830421150082 0.34782029631997347 -0.9375612182527187 5.913005888022255e-05
552951.566848403 355388.6116103355 14907.308751485554 0.8410177471768039 0.5405322046781713 0.02267343466282402
-626840.3685755127 -236263.66753954883 10086.697034864668 -0.9356335915722938 -0.3526515439974265 0.015055591577930016
-620644.022959552 53444.3335947596 4892.814101526616 -0.9962822019729625 0.08579094680210066 0.007854137680515426
-609330.9839767048 -273264.1741593221 11454.929264883456 -0.9123103794948584 -0.40914010445129645 0.017150696648526434
360351.20379465196 -550683.5894044123 1385.213687335332 0.547555584920587 -0.8367666646517704 0.00210483961985354
125684.88812894959 6652.323800124251 55984.798079849745 0.9124086622151635 0.0482925031756098 0.40642129281297446
809899.1129230948 460583.0684144319 3141.9244421895464 0.8692611011082566 0.49434175048882417 0.0033722134728106203
-811784.9429014159 -372517.20356132154 3136.0391368392875 -0.9088686754562403 -0.417067624062297 0.0035110872176206303
-737875.6365819183 811039.2777670786 1.2445312191541724 -0.6729559716324014 0.7396825401772049 1.1350350577942858e-06
64186.389743153384 217887.08885462282 48884.19182035209 0.27625430174921567 0.937772724600447 0.21039457635715642
-272096.4987928772 -541210.5052394043 16395.56894677654 -0.44901749359131776 -0.8931132360981688 0.02705619994062915
913107.4225283837 -601859.4919405102 1.7324404243193792 0.8349419481609061 -0.5503380263063431 1.5841369232862256e-06
-493022.83919380663 -471968.83947680227 15124.354006183929 -0.7221850964412061 -0.6913449738193799 0.022154314543373983
-599904.1155263311 255336.5245430891 1907.0696239764534 -0.9201185469715468 0.3916290384926353 0.002925017658609094
718342.0164410268 590064.5069192456 4363.0869524839 0.7727188778673181 0.6347310518114513 0.004693362739192742
182904.03901453226 -559438.4080810716 4148.002608140144 0.31074758380636286 -0.9504663458298949 0.007047311776420791
526473.4872812703 -204041.3467178945 4748.086022575548 0.9323888841145769 -0.36135890633727885 0.00840889947019129
-435309.1294663048 -991336.5088194354 719.571569237557 -0.4020582888814127 -0.9156138327038406 0.0006646075036608191
667682.6106930387 -557921.1979918715 69.780064047966 0.7673619962275892 -0.6412141298458325 8.019763939809087e-05
-761928.336470061 3250.5903748678084 1853.3415109477878 -0.9999879413262297 0.0042662164162556295 0.0024324061376866067
-59614.78735400579 176525.54553798385 46696.89376358052 -0.31035988801279524 0.9190076988655886 0.24310818443331084
-381218.7941870957 334051.3544170618 6107.573748143123 -0.752047802696188 0.6589984305803691 0.012048690901744204
546967.5368685126 426733.63620762643 13844.955581228254 0.7882761633814811 0.6149980224812518 0.019953009515409688
-999814.9098096059 -835085.2327045132 347.40294472945857 -0.767501142478754 -0.6410475217757072 0.00026668151711311996
19255.036495834713 -212179.19249154904 45524.57936462469 0.08838235995998309 -0.9739216942467647 0.20896193893485812
-280401.97341813304 759020.4821606545 336.1224265085109 -0.34653528910097703 0.9380368440805558 0.0004153975124481642
-529550.378888413 -575884.2319127559 9703.405737081988 -0.6768223071926917 -0.736041951923927 0.012401995580447946
67591.46634860126 616850.8757825878 7805.577142707938 0.10891448336498019 0.9939715481625504 0.012577629215483445
290414.63827891776 -291953.1610481526 13315.46617534504 0.7048678657047638 -0.7086020275470027 0.03231808244757052
-179234.11954240207 -271934.1561459408 43428.29649615028 -0.5454954290108466 -0.8276261213448228 0.13217314476094116
592235.128464789 -616795.9723582629 85.12172497903218 0.6925993721895553 -0.7213224658452148 9.954703874624151e-05
558805.8368620644 109305.45764152368 12633.20186530491 0.9811598326445292 0.1919201938349897 0.02218156899994362
-751440.3379545308 -699412.0813022923 2574.051299275205 -0.7319911540814528 -0.6813095208124885 0.0025074283160659004
-599723.4326104317 893826.1240962453 2.35149975149425 -0.5571671526665102 0.8304003636708748 2.184637700970279e-06
884575.5323797821 -221163.52038584353 129.12104970529444 0.9701374227386077 -0.2425558924218598 0.0001416104762081718
-451378.02057864005 -493901.24496928765 15905.22828615198 -0.6744249363682683 -0.7379608676638854 0.023764742822567207
442025.96871803456 578697.3046754854 11801.724345465256 0.6069307559090686 0.7945894979606496 0.016204544494970174
984474.6593977922 552017.5863206045 765.158310569209 0.8722368403653817 0.4890832595050626 0.0006779242724220567
-545126.8173875877 843468.8840812261 9.138495282970318 -0.5427969748796846 0.8398639437305684 9.099437848829449e-06
-34698.42679434093 974935.0747461121 165.6208062012002 -0.03556797994308318 0.9993672448006636 0.0001697713140724381
-787683.8023423341 511938.20431061566 27.337597317929486 -0.8384709834895322 0.5449462441372297 2.9100232912296362e-05
264808.79430767044 -185214.61755955446 24392.235719366487 0.8171276727029906 -0.5715217645724138 0.07526778276944618
846491.6581498336 430715.58243911917 2435.9096038016087 0.8912562102807837 0.45349287735759514 0.0025647264697397703
-827621.8084549094 -623553.724193659 2157.304252078155 -0.7986820337638824 -0.6017496778266299 0.0020818689525762112
-75074.4162273882 -140554.8309770139 56040.28096987251 -0.44445035414028417 -0.8321029658712391 0.33176578619993846
424122.8236403163 -25148.627270644978 19453.77334604897 0.9972018545575578 -0.05912970572678243 0.045739907822726175
904068.2602073167 -275893.60360304214 64.43075305094953 0.9564548341417883 -0.2918803617930534 6.816421716745689e-05
61760.18796913311 537738.3286306822 12890.865833421321 0.11406931699093233 0.993187454309628 0.023809063887160243
-278646.48203487234 -61913.01869710643 41669.06492888807 -0.9659551101652695 -0.21462749631536088 0.14444986317405054
228360.45815038317 526036.1232980546 17508.63058961378 0.3980259668388328 0.9168664236519369 0.030517059191857702
-767469.5612482624 -50532.6418589269 2222.0653313338707 -0.9978351958503361 -0.06570064942266318 0.0028890461681340004
964490.4893420421 864129.1164748324 388.30215025206496 0.7447944714878745 0.6672938672948532 0.00029985292542581993
-544712.0552363647 -369894.356123672 15223.366828026034 -0.8270653559239166 -0.5616303225911223 0.02311444952052375
-171123.01141738237 801349.7583001406 478.8751153296389 -0.20883499357643598 0.9779507165106451 0.0005844093135426307
-396400.2219690638 480087.0222141498 1910.9162297927262 -0.6366937869342485 0.7711106283269664 0.0030692931623933343
-443698.00189386605 -941903.0398789801 1125.6403689365097 -0.42615021492990207 -0.9046517702903016 0.0010811224822031354
771929.5343739442 -823662.1351096311 0.6455112472422109 0.6838214979656503 -0.729649339696602 5.718325940214776e-07
-638516.099301821 -539398.0572769707 7313.228988681391 -0.7638787742724594 -0.6453004509803488 0.008749067411074167
-842610.8432100045 109524.50164178188 462.7709896260121 -0.9916577130647366 0.12889795769643955 0.0005446291427926255
110213.80549331357 -576973.0816175148 5276.727144219257 0.18762063180568977 -0.982200493154384 0.008982748361090866
-602498.9655252598 -998704.8790608014 645.9327507853171 -0.5165594409514082 -0.8562511531506728 0.0005537978979714609
702601.8015502592 -534382.3673410536 60.03096470179678 0.795941114151826 -0.6053740481536509 6.800596415057604e-05
719036.4514638328 120595.14532064236 4246.323711800492 0.9862085901478664 0.1654046439554254 0.005824128822121142
164443.3668089463 978626.1433816069 437.0076052193862 0.1657116943383626 0.9861741430531259 0.00044037818067657695
555417.2025189057 34633.376564571954 10723.152339864368 0.9978763033748655 0.062223182182529514 0.019265481099435638
-285742.18234366755 55840.773697474215 33474.173184315696 -0.9750117834555397 0.19054033921680136 0.11422084421853142
-277621.26952991245 -320981.8218070936 35486.84129721643 -0.651897521832443 -0.753714780368302 0.08332857182912645
849859.6473802216 -811450.3200997977 0.2468242993500682 0.7232617455057823 -0.6905739985605344 2.1005653596034782e-07
853005.132743642 -465490.17571807327 19.58393551906444 0.877802698524383 -0.4790223607068437 2.0153256746614124e-05
-486183.7368734769 713864.8126039337 86.88693029990438 -0.5629081449871869 0.8265194554195463 0.00010059851255674192
-215484.1154428345 -518817.84344914614 18034.08543399454 -0.38337114699507957 -0.9230369083858464 0.032084722364010554
930346.9573235438 -500593.33043383824 4.62609799987286 0.8806143779132407 -0.4738336389423004 4.378805541583547e-06
338518.2869245076 299305.85909089237 33048.05197909822 0.7471684848517499 0.6606198656974334 0.0729427740783508
959551.4560289554 -409389.50607602583 8.464532268493217 0.9197847817169144 -0.39242318389225606 8.113736804831523e-06
761045.585726547 -619231.8097859288 11.240076970112838 0.7756737175047819 -0.6311341250804532 1.1456123590972409e-05
-192502.64448718115 55257.118446298475 45178.60206913729 -0.937624684455042 0.2691414363949456 0.22005189914165346
539030.8951850773 683461.9315872856 5926.972697142379 0.6192446308184167 0.7851685966142883 0.006808971531126397
-666297.4991142025 -995348.5238847905 598.2720229799223 -0.5562781003606899 -0.8309960442588218 0.0004994850271607816
220517.78752694323 -688724.9899843747 1068.2768515617875 0.3049331771198358 -0.9523726031946628 0.0014772189492900205
-827203.5440118872 -40661.54785327375 1223.1410420761663 -0.9987929674519872 -0.049096100150386505 0.0014768610215359695
-412762.16871718736 64515.076022996116 18322.476933494956 -0.9870555384656333 0.15427761536610532 0.043815309895821705
-434640.8415338158 -70430.31380451625 23001.181356674773 -0.9857800099111852 -0.15973831450181894 0.052167450959593596
-48099.02793870104 830021.0933832818 761.9271936111506 -0.057852083744300946 0.9983247450476987 0.0009164234226942858
-305627.55059442786 -923030.9171969257 1144.9729255028035 -0.3143299156601414 -0.9493130766186311 0.0011775746080693917
-935744.2183875338 337595.64377095265 24.287154455306847 -0.9406540480753776 0.3393670008167163 2.441458862976896e-05
370999.2960225714 -211211.86469383404 12825.723132884877 0.8686449547839503 -0.49452417463791415 0.030029705744127444
-743029.3516909658 -182154.91223452537 4118.79248350912 -0.9712262685137679 -0.2380977754087046 0.005383743516238478
-182068.62577158157 -653429.6988298711 7910.690854257934 -0.268392472607547 -0.9632390632978987 0.011661371471391603
826570.6183548992 894987.9001745195 703.5732524981307 0.6784696275712979 0.7346282263465421 0.0005775103445384936
-892419.8206322538 -936628.1281254902 401.80410710834406 -0.6898144289662936 -0.7239861581053976 0.0003105828269310364
-418940.3806907714 334507.074253462 4710.771651827186 -0.78142539840768 0.6239368077569922 0.008786731440800817
-836983.1347368971 64647.43510376563 645.4249038146124 -0.9970300824871505 0.07700924293337345 0.0007688423080255122
-654041.9852728518 -272415.76374455565 8778.074164068148 -0.9230570491735713 -0.3844635309238026 0.01238859800710081
-229108.1232078331 352598.27753622306 13059.551164617485 -0.5445907476242202 0.8381272426568368 0.031042595228821777
688895.7778931068 -415910.4267796295 225.5223685930144 0.8560790630878564 -0.5168448115256455 0.00028025281066596853
-39512.071549915956 -350050.13150548085 31611.499718136376 -0.11171431011476671 -0.9897129513271833 0.08937665741578307
5295.190026492882 147575.12116608975 53998.66467040545 0.033677280602616 0.9385742042513915 0.34343020234842486
203660.55464237253 372241.4313168471 32777.061699874095 0.47855178906024487 0.8746750357811371 0.07701796523218017
-634199.542859972 -478449.96563243354 8576.042578978619 -0.7982583481857132 -0.6022184713866706 0.010794548277650454
140158.82679925582 501806.1255059234 18327.18923657776 0.26884619877806654 0.9625413714331489 0.03515436931843943
-1079.0551462972367 748541.8726279027 2113.57166848123 -0.001441535554893916 0.9999949746986885 0.002823570897546029
455714.971015171 350190.30044803576 21994.192423967936 0.7923463436024787 0.6088718207061435 0.038241047707515796
-74443.12951879403 -390539.8884754221 28252.188708836915 -0.1867735915700707 -0.9798424393686225 0.07088313977359978
121989.46635739841 271579.5861431422 43906.74343432143 0.4053618248334503 0.9024385458328609 0.14589880726985596
-485024.2044481541 33427.49625901452 13458.90209512236 -0.9972514416542335 0.0687298046767006 0.027672659208245083
133157.20843922498 -792371.1243732542 676.089392961628 0.16572519503155017 -0.9861716137137319 0.0008414493501376402
-143253.54548959882 -508892.69041732926 17735.31406660871 -0.27081667469700554 -0.9620468779702225 0.03352809707997579
500711.20472125226 518622.97376938927 12872.690634362614 0.6944635452424391 0.7193063498720217 0.017853833288442825
583702.371701115 -878992.8971728854 3.541177451925848 0.5531948676172151 -0.8330518821962462 3.35609599463864e-06
201191.06044475385 239775.46332531757 45455.4843954344 0.6361064999824542 0.7580989454520078 0.1437167686271361
-69107.43234700501 -41416.33376254002 59939.46701801305 -0.6881937367774521 -0.4124369916183091 0.5968962293440343
112702.45177261118 881578.4599502725 972.3562656267093 0.1268095259367043 0.991926482733995 0.0010940670335591789
501791.0673988946 883646.9377543058 1785.6857983037125 0.49379954847247337 0.8695739865079974 0.001757246986254391
465066.36513246456 -601099.633417734 357.7849559307905 0.6119253907206015 -0.7909153523420016 0.0004707665730449939
224448.08543984118 263491.0419971756 42568.89750193534 0.6436051433556311 0.7555608662252121 0.12206636258685143
-551999.7802567242 -875685.6411279378 1797.1784079786196 -0.5332566321174504 -0.8459517421625027 0.0017361552294589085
-47565.315888967256 -605797.2923576655 7944.577947041644 -0.07826928417890198 -0.9968465371077129 0.01307289602511964
83468.4948381824 -861331.8350052502 445.12805568296335 0.0964544673622782 -0.9953372650203909 0.0005143807804626476
195093.89965697777 637624.1998163111 8968.680158782274 0.2925545518960463 0.9561542538404233 0.01344905304350794
-429955.262777625 -250598.45617746076 26459.68592513182 -0.8627428502859106 -0.5028477264426744 0.053093674688952285
722146.4764086658 -996927.3962523426 0.09173903273221255 0.5866342569073394 -0.8098519918002105 7.452402117074678e-08
-773.2615824562714 506030.16916292394 13149.246139010585 -0.001527576411047917 0.999661391732963 0.025976304371944373
-59627.33059321124 748266.2598057365 1594.6809088799816 -0.0794353263478883 0.9968377579785492 0.002124428465225487
-744168.7824720143 29835.250507461777 1922.9180308409454 -0.9991939509876577 0.0400597317912598 0.002581898233192316
-681417.5998472922 97917.09315458147 2389.97014217087 -0.9898269258169968 0.14223432932148533 0.0034716696474372754
-213166.7866297291 -867392.0431172668 1549.08465422587 -0.23865438042719217 -0.9711030217723312 0.0017343031915460088
85749.51360674865 304057.7481826472 39358.93159977333 0.26934746496970147 0.9550746148016216 0.12363018755922699
548178.0426489527 -844654.6246855863 8.680930338043462 0.5443965682291154 -0.8388279778512635 8.62104702740396e-06
-553505.9858102957 -890377.1397241806 1611.6455137090766 -0.5279529702303191 -0.8492722167302226 0.0015372426996890633
868020.5243885163 -530373.7741281617 7.7843219112907285 0.8533182295363643 -0.5213904478242427 7.652473190265971e-06
-269899.4436617455 -532939.6940429677 17063.33733121555 -0.4516163108355404 -0.8917552969214229 0.028551675955744663
247033.32528878827 -275534.41260317503 17904.437863575928 0.6667687685267684 -0.7436961825429617 0.0483259494301208
40703.182070277304 339980.797562058 32939.71307903891 0.11832684524731066 0.9883466887361424 0.0957579268683378
-17074.62681539089 552448.0098186596 9258.825545998443 -0.030888125151316365 0.9993825019644368 0.016749283326135046
-880233.4606782108 63369.83358215008 409.62508213359547 -0.9974184930530657 0.07180622725683698 0.00046415826072282223
953878.3642317278 192567.80302024097 628.4157756906009 0.9802247128469265 0.19788657180741276 0.000645772769750289
-250450.7361340503 933313.3659039064 55.567647537951125 -0.2591764364059538 0.9658299909949184 5.750362362935865e-05
935233.5763661037 -69687.1618083762 211.60788827648003 0.9972353797598843 -0.07430710896885126 0.0002256365448784704
693891.1072836743 301609.24392249226 6931.687514361678 0.917071457318882 0.39861763029017827 0.009161167658365702
-634988.8729281568 -489482.9940200073 8357.735016683368 -0.7919596872818563 -0.6104843965001744 0.010423787710916406
-116875.67129335196 441818.7412455732 12834.09830532014 -0.2556356577781775 0.9663655685326784 0.028071309674325064
-491091.46529719245 -209176.3032961768 20530.428148117928 -0.9193390164171948 -0.39158476682895715 0.038433621746801164
-37311.188518688585 -674650.2501975 4603.793337491247 -0.05521882573637276 -0.9984510297761326 0.0068134002727324085
6270.168338071786 796505.698507489 1402.5966354160257 0.007871838654030091 0.9999674661995823 0.0017608800618064068
-888566.8627064698 -722079.5824391816 1104.1995506187507 -0.7760627678421431 -0.6306549375960315 0.0009643935594144668
421125.91967107647 -64905.164428816504 17492.217087382454 0.9874987970324496 -0.1521962168576813 0.0410175259331277
596338.3826505722 -328910.15219060064 1168.2020604378963 0.8756410593560896 -0.4829594110931304 0.0017153443741071337
151381.65992382163 208425.83091700982 49713.395867411185 0.5770149186789949 0.7944477153817714 0.1894903985603409
-757078.7389729305 -537111.4748187168 3994.793950410458 -0.815586127040798 -0.5786196930201091 0.004303513437401878
-177266.23634385958 -2598.8831171452684 50871.018690883335 -0.9611077106611515 -0.014090707032049699 0.2758141049384848
-599744.8873791454 676751.4367328105 39.70611256156817 -0.663243735924898 0.7484034639339207 4.39100540722754e-05
779708.4443748152 -331740.88411533297 174.67665588167415 0.9201758505623979 -0.3915052509812325 0.0002061453118263888
-750105.967381885 -228868.0590231669 4284.200076436598 -0.956455167971405 -0.2918281514281671 0.005462755239814173
161831.64820350177 398993.80010492384 29672.405610051635 0.37497013473234536 0.9244839352719169 0.0687521016621093
896208.6040687283 -72261.98702299313 325.0061038409735 0.9967650393984621 -0.08036992951750462 0.00036147245231640866
100478.0559279907 184103.00886015288 52570.80117577989 0.46469115598070576 0.8514400404807011 0.2431295683777221
6713.407959140214 -546354.2616074029 9992.355612525178 0.012284664756187832 -0.9997573486985091 0.01828471315486757
930874.3745570293 290697.57342126244 1033.0849430677158 0.9545380062083423 0.29808735714223417 0.0010593468557655546
759193.62714824 226422.08708842294 3977.5154013745932 0.9582770947769919 0.2857967876040541 0.005020539908346387
-863354.3161563943 -965963.6685319319 386.0236452927995 -0.6663965015198829 -0.7455974879129278 0.0002979597158583899
958870.1126241013 -695757.4711325967 0.24635163500306378 0.809379074598575 -0.5872865685522791 2.0794459618619043e-07
710743.1468372196 738921.2198884387 2609.7596910259704 0.6932290922610352 0.7207128043304188 0.0025454502793028303
-827080.2317701982 959632.1988381098 0.03442507099573474 -0.6528540769050081 0.7574836990117405 2.7173358864118346e-08
487891.3431059997 -752231.0738746146 54.4624966333388 0.5441578761937383 -0.8389828377783154 6.0743435846877657e-05
865557.6754505499 383121.4907758097 2072.9479309800995 0.9144242005483715 0.40475126366733377 0.002189979718657319
-162185.7224827828 -954474.667633738 559.8892725929463 -0.1675202035867668 -0.9858684734557277 0.0005783046959683762
671906.2551344816 -49832.30593597675 3288.9782105083027 0.9972491466816455 -0.07396154477217219 0.004881530256371038
-967501.8702613788 -343666.90358617535 806.6344512348381 -0.942316965025589 -0.3347209587094416 0.0007856370631793666
167465.40804310128 -223107.84641771688 30692.05779192189 0.5967079809866526 -0.7949715355181395 0.10936106776528898
-672638.5493402005 -595481.9905602966 5344.8573087286095 -0.7487315863348436 -0.6628465999508757 0.005949500657408399
-940360.157755646 670817.1507816729 0.4641325721845172 -0.8140890090509483 0.5807401185920287 4.0180905437312773e-07
-911953.9302455755 -820146.5201085898 655.0393952448799 -0.7435421081987151 -0.6686889023321245 0.0005340723437229272
-825370.317633435 -113185.9162871406 1667.5601712663592 -0.9907257917933459 -0.13586169036821952 0.002001640761419582
786892.7977771988 277669.382783945 3484.390188512224 0.943003731953879 0.3327559547555151 0.004175655134514076
913949.8161827858 -255753.62015989685 67.77070502105659 0.9630056797821488 -0.26948108580785535 7.140826848753988e-05
-163062.80271427732 -104177.45772616279 54183.676670055225 -0.8114858196004598 -0.5184415345475079 0.26964632362299173
-395503.0554252682 506346.20884563134 1547.5911771928454 -0.6155650099201544 0.788082430200058 0.0024086867731444436
-509174.36173940165 227362.4447073679 4734.153560210008 -0.9130699540300447 0.4077145915751444 0.00848945606535559
842475.4802312443 -932717.55877581 0.04199553656868585 0.6702954203765797 -0.742094366925247 3.341274197145868e-08
729968.7152970672 -751983.6209403905 3.1247484586454517 0.6965256188280172 -0.7175319242426484 2.98158990684167e-06
-909192.4632388315 -967113.4469331411 307.04749114776877 -0.6849523142327002 -0.7285878627311156 0.0002313183381347087
-762391.8969412224 881314.9129405686 0.3146556826868764 -0.6542371508403457 0.7562894620846133 2.7001787159951535e-07
552633.4551598689 209778.10172681411 15093.033600843532 0.9346039631797567 0.3547730298113954 0.02552507251967388
260696.42503025354 -853818.5912069406 135.03724643046303 0.29202121751288096 -0.9564118284723265 0.00015126306817454251
994117.3761984687 -387730.580483355 6.544177537179482 0.9316466861228463 -0.36336545267637343 6.132939089373323e-06
981805.5279457383 -656948.8969599071 0.2951688464943144 0.8311067819166309 -0.5561128635916627 2.4986295467822183e-07
479254.5713607336 -982130.7086134587 2.8099470241760893 0.4385466414232057 -0.8987084306324353 2.5712698504486708e-06
-561009.2148103893 853726.4336597108 6.604351486669909 -0.549170357404359 0.8357104274248184 6.4649812705560525e-06
-236486.23040053996 -481239.2282722924 21603.387576496974 -0.44067859036663926 -0.8967618300015785 0.040256679504047425
-92546.1312569473 -462611.7025867111 20833.129012034035 -0.195973642298788 -0.9796163177718542 0.04411577358791403
-775256.3016330622 -149354.76537916556 2915.0155509927336 -0.9819369804210449 -0.1891722350646895 0.0036921487280950635
747977.6778651684 388781.6919611054 4934.188010828081 0.8872825316048144 0.4611891692669411 0.005853141021744303
-367133.10540660744 -51098.57107916712 30062.690908989898 -0.987211099636648 -0.13740269074633582 0.08083777167801671
-198654.96676142322 463265.11751924636 7678.831571788721 -0.39406258037576447 0.9189573791374565 0.015232139587448552
-801988.6901570639 -647857.353672435 2351.6972440311 -0.777893042076836 -0.6283925619716674 0.0022810407997708726
-196498.65127316592 859108.2179012923 210.59417899965442 -0.22296612074009708 0.9748261649648673 0.00023896025157303888
-766564.7186536309 -195903.04320977672 3525.9767479285897 -0.968852203792857 -0.2475995705579561 0.004456440871363085
-298503.32191612665 413326.2738003516 6142.214329738389 -0.5854350551857203 0.810629805922251 0.012046323511613319
-999097.4308158854 571831.678124828 0.7003974560106627 -0.8678990942058309 0.49674053818500474 6.084234619233468e-07
141467.77458944896 -378344.6966677746 16693.60138853416 0.3499314468468334 -0.9358647755363434 0.04129291002086456
47150.65718813484 -245871.16760859045 39232.20085373097 0.18606709223299325 -0.9702628966192579 0.154819083552274
-772166.3982120905 365382.8999791828 141.40046097110667 -0.9039099090106337 0.42772286470759985 0.00016552556302164848
-793334.5107208946 -476393.4978209986 3472.150543283536 -0.8572995704905327 -0.5148042037088556 0.003752103468599361
-792200.5744862602 -751006.2338468422 1707.8849448372528 -0.7257228732895973 -0.6879853656243243 0.0015645673700995697
-450459.52796061075 -683453.9003957005 6974.002243072516 -0.5502944759422592 -0.8349271856934329 0.008519644210760955
584807.1685275608 -370083.5853957608 944.3980022735954 0.8450104470020156 -0.5347480550054892 0.0013645971202068327
205777.61646748264 104732.49500487297 50629.7503552848 0.8705280689177349 0.4430636246772527 0.21418568046023523
-770112.03710314 857850.199175257 0.4005925086522141 -0.6680281574493939 0.744135996209461 3.474910955159226e-07
374792.79800201155 210095.50645080578 32456.68845570687 0.869817861013588 0.4875889424871648 0.07532537305579667
463360.800325324 359063.260619331 21148.948849998633 0.7899352791410368 0.6121293316298696 0.036054626981034524
764267.5041508666 217425.0158777738 3757.9530441555885 0.9618241073627193 0.2736275200491628 0.004729351715956853
-663705.6178721489 434684.3442838656 248.42411853062507 -0.836551943477747 0.5478875320896649 0.00031312026532156513
920831.0924379501 986050.9141641394 257.09506474452786 0.6825229731293331 0.730864115166219 0.00019055969048757738
394731.7509783924 -100065.04096289293 17870.72085172385 0.968406576143068 -0.24549239697668887 0.043842745232252074
584358.6699728565 415506.5150950456 12027.792498091965 0.8148653378827874 0.579407603948361 0.016772286784753312
144217.08093741388 -11523.251890751713 53492.97027193005 0.9349609468821813 -0.07470537074325216 0.34679552388588897
-604802.2867810071 -754339.1969281471 3468.0624139575707 -0.625530023319192 -0.7801918507227816 0.0035869195770101355
46481.37039816337 -666294.4247698868 3499.590059534362 0.06959091998893538 -0.9975618534058338 0.005239511867678333
56457.855719046696 -832745.1594558785 706.8933181094627 0.06764197549346093 -0.9977092992784294 0.000846926612622314
-29939.152472434016 -381922.5663306283 27198.220437877146 -0.07795466400565947 -0.9944384819141423 0.07081790767920831
-728443.9002186538 -578468.9514179196 4271.099994027217 -0.7831032231094459 -0.6218747939108817 0.004591585118004943
575491.9183418521 -21989.01224794599 7761.24889861544 0.999180102889862 -0.038177744673901684 0.013475229149031886
-707413.8061720084 828757.9976476486 1.4646440612406386 -0.6492291816215937 0.7605928409662748 1.3441774205562754e-06
509052.5840550131 -530393.1289032797 473.5165800548956 0.6924433221886063 -0.7214719888429173 0.0006441051554885434
-111689.3370196098 894550.704506592 256.5291348641681 -0.12389328710200308 0.9922955066093339 0.00028455928384797104
-670884.8563913121 1903.0695244624462 4083.3529423386635 -0.999977454601568 0.002836592003638521 0.006086381057225661
980602.1235240017 386647.22181697725 758.4708664511389 0.9302950638836223 0.3668113634386249 0.0007195596320180292
710591.2781335795 -273149.7675544099 590.512514986067 0.9334133372493532 -0.358802090523152 0.000775681146479029
619544.7765060847 957798.7241687218 876.5478671608885 0.5431229903162683 0.8396528014089613 0.0007684243606290711
236717.21120170207 993533.1447591201 480.65162628700483 0.2317703266241656 0.9727704221580485 0.0004706070329717305
-18918.86934817116 -824867.5119806556 1132.210544716984 -0.022929594329470206 -0.9997361405270339 0.0013722346725978383
-404591.1698765336 -364634.39101062657 25037.283321033057 -0.7420517561307287 -0.6687679078059577 0.045920330052642525
828149.8220328282 310103.03364382935 2622.2056763962214 0.9364934245816233 0.350672600807186 0.0029652585903089464
330600.85688866145 -160652.65210714997 19802.43141039714 0.8981254262017754 -0.4364363510793071 0.05379619193269044
461701.56909951905 -621034.1875634798 301.68382268851514 0.5966252611859576 -0.8025198724862987 0.00038984530604511855
567103.7164647838 850330.1676777983 2096.913412441915 0.55484596179765 0.8319505692395567 0.0020515893395753756
-185395.88539397257 -301088.3697996012 40442.40169523855 -0.5209282384728634 -0.8460027781688383 0.11363568846171111
-951443.2573526414 942044.2539945869 0.006029855638061414 -0.710608004327258 0.7035881353363143 4.503540960778654e-09
-550745.0396485229 -903765.0384499724 1463.630817231714 -0.520378783280384 -0.8539344292235198 0.0013829310643066021
912077.1312656158 -830944.4066494441 0.07005222945223231 0.7392202241839901 -0.6734637779104146 5.6775927150383624e-08
-324767.48224571685 -335589.5563271205 31832.167717473796 -0.6938152836059226 -0.716934964018731 0.06800448222208567
357992.4330801699 -568643.5125583466 1202.7610191895626 0.5327672595864908 -0.8462599146599896 0.0017899587614679476
989012.2502883411 -371020.9419847616 8.384820593639114 0.9362851770547957 -0.3512407538490676 7.937801813677537e-06
-357656.02467694064 499897.6208698893 2171.636201206116 -0.5818659855716656 0.8132770085870235 0.003533006999278917
4882.8583368344525 -711372.2759614127 2880.124765334864 0.00686378069956386 -0.9999682483342753 0.004048559964870339
-953775.0434549894 -579284.1955042811 959.468335089046 -0.8547051009338188 -0.5191131390839523 0.000859807022434202
772174.9999923427 -157950.33904981293 709.0135701077515 0.9797131775887086 -0.20040279544564465 0.0008995757927032969
898941.62929896 269013.50897097547 1327.5069495826071 0.9580213270344038 0.28669345200481927 0.001414752557936738
-419648.931289135 212354.83511847304 9518.436046027264 -0.8920821149224443 0.45142007116413463 0.020234119344971324
-761554.2296383593 -621282.5704403836 3184.265015488043 -0.774853654705666 -0.6321323571917741 0.0032398735228270936
-968193.4278719659 -68224.45408175477 319.54340787535057 -0.9975264442528314 -0.0702914264155314 0.0003292245023217433
625364.1663028356 -209515.45133624555 2052.62435436402 0.9481951068183736 -0.31767334373243944 0.003112247988960863
567456.0818459128 -826975.9174724811 8.774856917147682 0.5657907026403801 -0.8245488952931525 8.749104326403028e-06
845953.0018723024 -161925.59722406892 314.14603949493534 0.9821691501458008 -0.1879990092362389 0.00036473013033764846
60810.22264949347 -895755.0722844269 350.58665369345863 0.06773120866056868 -0.9977035285557316 0.0003904879271991939
-910527.1256682018 909847.6455564026 0.0204654480427838 -0.7073706693148372 0.7068427945399733 1.5899205275436604e-08
-283942.2821270747 906837.5365480783 57.97948395478924 -0.29880756906168443 0.9543133829872812 6.101489544353264e-05
462504.8429353395 168125.76870163577 22842.085092355406 0.9388203648511722 0.3412718762285918 0.04636624888999203
297896.8124634978 -461291.06504797126 4399.20877703027 0.542481892008008 -0.8400292962660535 0.008011133388659672
697415.2560319811 655764.0605937941 3898.8110780027005 0.7285206314913216 0.6850117536161221 0.004072701714000988
51755.00447436324 -75261.44564603212 56921.95280822365 0.48088618662178056 -0.6992983570176396 0.5288953425667423
629632.2751453668 -99094.99371882794 3681.1301764392306 0.9878238643435818 -0.15546915794593844 0.005775288814733071
97448.59960511973 -82628.59644046241 52923.896496204194 0.704658697317166 -0.5974940570189893 0.38269697166591676
-58213.2573815332 -209151.83848764078 49668.08424364728 -0.26138473207010904 -0.9391176464625256 0.22301584684350162
562824.5537548782 -215926.6020400887 3338.671398020259 0.9336335244354684 -0.3581867797648754 0.005538307672381875
-965399.5078544997 431698.41979840875 6.123741912359528 -0.9128855059135912 0.40821569428349425 5.7906340206992615e-06
262394.38884626323 385138.630366237 30519.489411279683 0.5618401268130532 0.8246606868272358 0.06534847744457475
-834549.6108621216 527508.5987216973 12.592164331180115 -0.845294662735264 0.534300414550283 1.27542918514289e-05
796927.3077273523 -991731.083930076 0.032359535036189505 0.626391368064097 -0.7795087260671226 2.5434858643558468e-08
488973.23116991326 -324059.410882383 3003.344722658492 0.8335490733436653 -0.5524216959750925 0.00511977967487888
497627.8480180061 -986266.5296275002 2.1297647941960047 0.4504655241231129 -0.8927938236641045 1.9279178568835695e-06
-375443.28378949664 236349.5639048869 11042.901959321054 -0.8460121058839665 0.5325826853678408 0.024883728501888698
570678.4431650842 -690881.2828061356 46.493899397384936 0.6368485637167342 -0.7709889131497896 5.188486337173517e-05
291950.9762693448 -219180.06984530957 18756.172726033743 0.7986614266484805 -0.599589251292903 0.051309407693226915
-167063.6998724576 30534.297915340212 49971.20549948924 -0.9437008999466883 0.17248058341785458 0.2822747948075548
30244.502091557042 -871948.9436507282 543.1549626238833 0.0346652391704448 -0.999398786085722 0.0006225460954514127
377114.2803379157 800244.7241364878 3421.8513916135307 0.42628290940484914 0.9045816269145538 0.0038679966334369273
879821.8965628371 -101135.82504916862 324.7662084165125 0.9934579048035741 -0.11419832269058786 0.0003667123519259062
-850865.1280367791 809614.6060974286 0.24982172820229642 -0.7244495913858646 0.6893277809147175 2.127049786762927e-07
-558829.1957973383 785322.515410944 16.703201652523564 -0.5797839645736269 0.8147702462185119 1.7329532078858854e-05
-635962.1056336865 841109.7865889191 3.13283544843802 -0.6031089069103948 0.7976588533931794 2.9709961428517986e-06
-903980.2310907873 -660547.5483981647 1193.435379818483 -0.8074133795313055 -0.5899851678722359 0.001065947749884692
-767628.0085344056 478207.12156554597 50.03747363795231 -0.8487728241383594 0.5287576854695656 5.532686058905045e-05
-290773.8474597511 -869694.2029734516 1798.4481315455707 -0.31708655585878887 -0.9483945749604528 0.0019611933084917304
751721.1773597049 75280.95289911325 2801.489008446144 0.995016075401999 0.0996456672529732 0.0037081921893655327
-340978.04682874173 415302.76575023367 4632.097651741947 -0.6345341355256224 0.7728467679887937 0.008619980395965447
-276432.7188451034 -529785.1595708696 17310.087489574526 -0.46240238802884476 -0.8861972777726129 0.028955421144096143
190747.09198701585 245982.43300594305 45389.54730920798 0.6063810076164248 0.7819729990548778 0.14429241959025213
-326947.68385285395 -519414.3196491842 17706.388634063187 -0.5324855846916194 -0.845947689355932 0.028837631126420595
-273734.9384268529 84002.24403249753 32629.674804125643 -0.94985097884488 0.29148494590417634 0.11322386806085719
-652769.9024574237 696290.2503118556 16.949198309605165 -0.6839398979473953 0.7295383579225573 1.775852856959442e-05
-331143.23082312575 -602878.1851270819 11872.702771232736 -0.4813561043687001 -0.8763552070211238 0.017258386771434937
-965260.2370980888 -764056.7622489982 575.3070212423115 -0.7840882700293564 -0.6206491492046922 0.0004673262915892668
901985.7315475924 -605814.4519452397 1.9362488370853064 0.8301378690829561 -0.5575581748223526 1.7820165302110851e-06
-936222.4254552891 -733116.6240390346 778.3748466706669 -0.7873330426287949 -0.6165275756193355 0.0006545882897826454
98285.08411500997 817746.0592581442 1694.0887983794448 0.11933115229171447 0.9928523784859872 0.0020568489126849294
-502023.662818739 -633771.2725169521 8182.217370074468 -0.6208901530354248 -0.7838322603621666 0.01011955923860292
